 -1.6965985324551156e+02 4.1734061389081782e+00 1.7955364373955442e+03
 3.6018640380798672e+01 8.7495349524237263e+00 1.7553097205804333e+03
 7.8708093376410716e+01 9.5840266554326412e+00 1.7355584417294447e+03
 -3.8419276636620786e+01 9.7113499614630907e+00 1.7790695620519175e+03
 5.0492302232925503e+01 1.1256894002358255e+01 1.7523272072864693e+03
 7.3292540970476011e+01 1.2872740369065278e+01 1.7386008688825389e+03
 -4.2989195026130552e+01 1.1895236002462838e+01 1.7819984209328429e+03
 9.4393283902675194e+00 1.2681866566205869e+01 1.7667165014658335e+03
 5.0565124814826582e+01 1.3506715439554107e+01 1.7539037622211201e+03
 8.2953915871322209e+01 1.4203944853433804e+01 1.7331427531378743e+03
 -1.5667526903332933e+02 1.0434543356460800e+01 1.8016490406444741e+03
 -1.4326546668363875e+02 1.0866372899091564e+01 1.8038097619474304e+03
 7.4404704438636458e+01 1.5135330286366198e+01 1.7382915325515305e+03
 2.6141468989880892e+01 1.5334068460411185e+01 1.7609111472641944e+03
 3.9439473690944986e+01 1.5612608920758442e+01 1.7572170223768660e+03
 1.2558489849421825e+02 1.7572301784232845e+01 1.6900293977520421e+03
 -1.5461228723674773e+02 1.2850532749840394e+01 1.8037444191612442e+03
 4.8365944627393404e+01 1.6884508955279760e+01 1.7553573938403297e+03
 -1.5021672318262685e+02 1.4176095711676700e+01 1.8052129073995488e+03
 7.5467160815617405e+01 1.8557042918374648e+01 1.7380167459643633e+03
 -6.4751056971779448e+00 1.9356860615207644e+01 1.7758801511014981e+03
 2.3958436905465305e+01 1.9844426864706033e+01 1.7631172884471068e+03
 2.6171717518725099e+01 1.9895951565669591e+01 1.7623832981040414e+03
 4.5015782411501398e+01 2.0273796914338991e+01 1.7571873599098165e+03
 7.0080152504529295e+01 2.0723317708604675e+01 1.7417256119097474e+03
 1.1760585242322556e+02 2.2896820891963088e+01 1.6981816111380126e+03
 3.9517404995080042e+01 2.2441523726871843e+01 1.7598334497722883e+03
 2.6222882769041732e+01 2.3308082317083716e+01 1.7638431992886349e+03
 1.2369956515804454e+02 2.5214606825714643e+01 1.6933901126784042e+03
 2.8456222748726681e+01 2.5645131086759100e+01 1.7642650990971154e+03
 8.0899171677030182e+01 2.6579147285559834e+01 1.7374522292032304e+03
 3.7508074930949573e+00 2.6407071333270490e+01 1.7738210190476711e+03
 3.0713221232809818e+01 2.6825838800256761e+01 1.7646495948623744e+03
 6.2490512940264736e+01 2.7447790957759668e+01 1.7486378601287693e+03
 7.7653730939407382e+01 2.7663439163479062e+01 1.7391860326287331e+03
 -2.9458930790334470e+01 2.7171960067110653e+01 1.7878092409987446e+03
 -1.2193592853298133e+01 2.7357510300207348e+01 1.7805862871138688e+03
 8.2860111246830598e+01 2.8937847125993731e+01 1.7349983835088990e+03
 8.5064148815853173e+01 3.0074788909436389e+01 1.7342574107401567e+03
 1.1889856525477357e+02 3.1634005892194491e+01 1.6986597253257139e+03
 4.6339033176483760e+01 3.1663303532968829e+01 1.7618113626638644e+03
 6.8080481560386360e+01 3.3159144840837023e+01 1.7474559187657887e+03
 8.6281110819155188e+01 3.3447277475828713e+01 1.7355424504993819e+03
 2.9670822372412239e+01 3.3673741907509481e+01 1.7674000109897338e+03
 7.3486667795707945e+01 3.4352372851866242e+01 1.7436612629872470e+03
 9.3549565280361747e+01 3.4711388729914965e+01 1.7289922371684556e+03
 4.8471732833715073e+01 3.5173703050131927e+01 1.7607866141432696e+03
 1.0787807064018877e+02 3.5896710750357855e+01 1.7107276143779634e+03
 -7.2101523515981029e+01 3.5815642851672955e+01 1.7991408829799288e+03
 -5.7052023816031436e+01 3.6030456082421559e+01 1.7957169228022940e+03
 3.5242391657656228e+01 3.7253320915048008e+01 1.7681063178426189e+03
 8.7507987895482657e+01 3.7943698450882138e+01 1.7367163107324213e+03
 9.5775049135704393e+01 3.8090552160797266e+01 1.7288294985769130e+03
 -4.8985859336746557e+01 3.7324631558169052e+01 1.7933436082725177e+03
 5.5029335702644360e+01 3.8706747254890274e+01 1.7570527240969941e+03
 7.6802298337123545e+01 3.8929326556444892e+01 1.7433435465751759e+03
 -1.5577346812302608e+02 3.6337176276866565e+01 1.8174498702135702e+03
 -6.6352504195333793e+01 3.8234183860692688e+01 1.7994176727760098e+03
 8.3222090126726897e+01 4.0172281377418621e+01 1.7399279407827405e+03
 3.8585957059666740e+01 4.1926943381396931e+01 1.7684284741471943e+03
 4.6365109960381432e+01 4.2001192920356480e+01 1.7642273606045587e+03
 7.0371418854406755e+01 4.2270111426903611e+01 1.7486518986202084e+03
 -2.1354752456052829e+01 4.2299133515584273e+01 1.7880907836546271e+03
 7.7982794299068928e+01 4.3484016853787978e+01 1.7447793696434499e+03
 8.7511460513930302e+01 4.3626155512414229e+01 1.7378796102649003e+03
 8.0135585182476987e+01 4.4657585336986642e+01 1.7439648924747933e+03
 -5.1323902340491301e+01 4.4281306189825202e+01 1.7957204619228614e+03
 -2.2471323296316918e+01 4.4590437387439714e+01 1.7896437048866931e+03
 3.0854246376859212e+01 4.5241387840913809e+01 1.7723678930239901e+03
 1.3430489879891525e+02 4.6106522312667124e+01 1.6783580986533696e+03
 2.0750973498127351e+01 4.6256082235500074e+01 1.7755983772788620e+03
 6.6054365411511057e+01 4.6822264370842412e+01 1.7532178737233551e+03
 8.3281611389838375e+01 4.7000855636114437e+01 1.7419879922989537e+03
 4.8562707838131473e+01 4.8951957483972713e+01 1.7646574991240930e+03
 6.9354518863011833e+01 4.9120342100808713e+01 1.7516409802787985e+03
 -1.0111666949516091e+02 4.8020090926510747e+01 1.8123528582820913e+03
 -7.5564246968191782e+01 4.8490729215053747e+01 1.8064167530551961e+03
 -9.5316581349385487e+01 4.9309896581732467e+01 1.8113300047830819e+03
 6.2769978051594947e+01 5.1395411343846092e+01 1.7561623370688701e+03
 6.6030802747310759e+01 5.3727337667111698e+01 1.7547477512401886e+03
 6.9352786018577518e+01 5.3710449937297632e+01 1.7526488967495527e+03
 7.1523645108490300e+01 5.3716353331868639e+01 1.7511611166883713e+03
 1.0517971068062124e+02 5.3817430564044130e+01 1.7207414966182914e+03
