 5.8586613203675086e+01 1.6406720219833312e+02 1.7607549320246767e+03
 -8.5413316675643912e+01 1.6912048591884022e+02 1.8553037484329461e+03
 6.0830343593460569e+01 1.6522024238235457e+02 1.7604984680991524e+03
 5.5287511146528537e+01 1.6649568993381862e+02 1.7630799549879041e+03
 7.6152597645199563e+01 1.6798481195584193e+02 1.7609497772068689e+03
 4.9782773482793452e+01 1.6899414784200769e+02 1.7666906014866863e+03
 5.6428863375410650e+01 1.6884028915004737e+02 1.7635191518429810e+03
 -7.7087135358906067e+01 1.7408271194397213e+02 1.8555970674194677e+03
 -1.1692104283394630e+02 1.7683608104662494e+02 1.8701667931071247e+03
 -8.7955664793725845e+01 1.7653447431130326e+02 1.8573648079199666e+03
 -7.8333137811205489e+01 1.7641328750210744e+02 1.8536896422536588e+03
 5.8716990934032019e+01 1.7237922918187004e+02 1.7644018427847009e+03
 -1.0599304163094203e+02 1.7778380035480538e+02 1.8619095319319481e+03
 -9.7616406519327853e+01 1.7776194213290583e+02 1.8588903972012286e+03
 5.0925752861559978e+01 1.7371912163831320e+02 1.7679423442789678e+03
 5.3157631995979237e+01 1.7367811624154558e+02 1.7670656464089107e+03
 8.9437397621613314e+01 1.7459777575248987e+02 1.7561470358993859e+03
 -8.5638572180768293e+01 1.8136952621367857e+02 1.8559936991512413e+03
 -8.3237137273367097e+01 1.8131494831671759e+02 1.8545580024069197e+03
 4.9861584717709732e+01 1.7729407426236310e+02 1.7696940421995960e+03
 8.2011993290519712e+01 1.7722971918826244e+02 1.7622144344486460e+03
 1.3305922571627841e+02 1.7544144104321634e+02 1.7217934116062272e+03
 4.5465003840316292e+01 1.8094906936544825e+02 1.7729482860440951e+03
 -8.7002315532323991e+01 1.8953534436167160e+02 1.8707653545876040e+03
 5.3281929621458104e+01 1.8433387171139140e+02 1.7706891305984930e+03
 8.7261184259166313e+01 1.9150424287657873e+02 1.7693694963263447e+03
 3.5314440689665155e+01 2.0139089637922109e+02 1.7987679470862554e+03
 5.9726948245675942e+01 2.0173744603172727e+02 1.7846617566584314e+03
 -1.0849109311763252e+02 2.0992037518818799e+02 1.8735389454254735e+03
 -7.5246284237095253e+01 2.1130269265236424e+02 1.8643355150992988e+03
 3.4449467060724331e+01 2.0876524903148336e+02 1.8035359596369713e+03
 8.0275162617150173e+01 2.0693244445795892e+02 1.7729262109372980e+03
 3.5682869389198480e+01 2.1712612646877858e+02 1.8050619048617702e+03
 4.6989493873771721e+01 2.1859677301718483e+02 1.8050584083483966e+03
 -1.2389510556346283e+02 2.2855754810899796e+02 1.8916213054869393e+03
 -1.8609295381317659e+02 2.3208609146072004e+02 1.9220335650095008e+03
 -2.9995314131937853e+01 2.2766428987655701e+02 1.8267782842452398e+03
 -1.2527607406069281e+02 2.3377357348065044e+02 1.8947818042660151e+03
 3.7131231356517290e+01 2.2802725970823113e+02 1.8090338460716091e+03
 -3.7867718250351629e+01 2.3219867806475784e+02 1.8518851190513710e+03
 -3.0987639389315920e+01 2.3097973831164785e+02 1.8373018712752219e+03
 5.7817094059715117e+01 2.2865993709457342e+02 1.7970313190658969e+03
 -9.1875212205308785e+01 2.5078872132636008e+02 1.9091497178373334e+03
 -1.8604857946614010e+02 2.6218813906918308e+02 1.9295689894054556e+03
 -9.3306452910099409e+01 2.6262852199952442e+02 1.9151959511291088e+03
 1.3600983267454717e+02 2.4846678987038723e+02 1.7385869599831308e+03
 -1.8866379617218053e+02 2.6734005028027957e+02 1.9310366809382906e+03
 -1.7922220183597523e+02 2.6939817793000628e+02 1.9353914685038296e+03
 -1.8391721115585963e+02 2.7018330440559214e+02 1.9323048256474879e+03
 -1.7829396529610239e+02 2.7365959326022818e+02 1.9392194404321112e+03
 -1.8208642109906586e+02 2.7495403700001646e+02 1.9401511258335393e+03
 -1.7348928636633320e+02 2.7649718069948347e+02 1.9406121092689584e+03
 -1.6975728904737124e+02 2.7653181412132949e+02 1.9399526414390107e+03
 -1.6599177206571096e+02 2.7653992845906481e+02 1.9394706765968147e+03
 -1.8801042380005865e+02 2.7945639491611763e+02 1.9369641710576113e+03
 -1.6871971745742718e+02 2.8066597320309796e+02 1.9425438847159348e+03
 -1.6626466424702659e+02 2.8204277739006409e+02 1.9431155291514694e+03
 -1.7264892260625180e+02 2.8344302962942345e+02 1.9451539926805424e+03
 -1.8937621940333128e+02 2.8338761441175984e+02 1.9384634229501496e+03
 1.5985955728058272e+02 2.3987055370265105e+02 1.5243923797598209e+03
 -1.8962493766186776e+02 2.8751983823567861e+02 1.9410284138325328e+03
 -1.6908335240179906e+02 2.8883605743381429e+02 1.9470570145535380e+03
 -1.8436237419727223e+02 2.9030686579916517e+02 1.9510041228662401e+03
 -1.8057375016618238e+02 2.9030059537601818e+02 1.9502183905284489e+03
 -8.8677131631791397e+01 2.8712952343430572e+02 1.9085814032542542e+03
 -1.6679386773428223e+02 2.9428047880832941e+02 1.9493921621027732e+03
 -1.6941110001563038e+02 2.9571454605275727e+02 1.9510664835959642e+03
 -9.6247741642010538e+01 2.9424721921943137e+02 1.9168227781750311e+03
 1.8466448191791227e+02 2.6875715633516774e+02 1.6896863987025015e+03
 1.1636302422675628e+02 2.8060346290268257e+02 1.7788728000959431e+03
 1.3051178221820365e+02 2.7979181981413120e+02 1.7716207783922789e+03
 -1.7102462882775524e+02 3.0145475089670947e+02 1.9565921907803647e+03
 -1.6462447904824481e+02 3.0129548489140717e+02 1.9542507633156326e+03
 -1.0009742536431330e+02 2.9857553516412685e+02 1.9218041141069023e+03
 1.4051376477492289e+02 2.8070343492864839e+02 1.7597829757816428e+03
 -1.7886302674051527e+02 3.0325048480764065e+02 1.9626992249423897e+03
 -1.7367597832693340e+02 3.0298111537466627e+02 1.9592315253534668e+03
 1.3549740243793903e+02 2.8257838164464152e+02 1.7657499770390921e+03
 -1.6470191882264834e+02 3.0396221331740060e+02 1.9550881079506539e+03
 -1.3494587497788058e+02 3.0213780076866431e+02 1.9371439889097990e+03
 -9.1369428504727466e+01 3.0040129207420313e+02 1.9151377148304423e+03
 1.3820286020664574e+02 2.8302721650510966e+02 1.7599393812512394e+03
 -1.7641601623634054e+02 3.0595290363143272e+02 1.9633157682926587e+03
 -1.7126141632946164e+02 3.0576849652140220e+02 1.9608012835452350e+03
 7.6401329180032818e+01 2.8548162287707561e+02 1.7724054800527315e+03
 -1.6741493458633462e+02 3.0687790764478200e+02 1.9584043202443011e+03
 -1.2998275228719504e+02 3.0469888846535582e+02 1.9365717340912304e+03
 -9.7654850036175588e+01 3.0356362343130087e+02 1.9212191486268830e+03
 -1.5295690813866506e+02 3.0677780477928701e+02 1.9450996757267164e+03
 -1.3635539472948830e+02 3.0624805678550416e+02 1.9395513141352631e+03
 -1.3136447364836465e+02 3.0878835525530081e+02 1.9389571798541876e+03
 1.8426345369897234e+02 2.8064621074188835e+02 1.6957392608050066e+03
 -1.8303081860214164e+02 3.1279809226872015e+02 1.9678999033351377e+03
 -1.4026727182868711e+02 3.1042035505510381e+02 1.9429593398473482e+03
 -1.8689841830140338e+02 3.1415916780133063e+02 1.9691304963522491e+03
 -9.2823643583420747e+01 3.1063714545055871e+02 1.9271222399959865e+03
 -1.7553973299906133e+02 3.1558458470502552e+02 1.9680643473938394e+03
 -1.6646507150511664e+02 3.1507663493256922e+02 1.9620088427543531e+03
 -1.3148602393270130e+02 3.1284567103071345e+02 1.9407878504805458e+03
 -1.6392532887326203e+02 3.1756630102951783e+02 1.9608770663808511e+03
 -9.9219415500657504e+01 3.1674946574729148e+02 1.9362657128020564e+03
 -1.6530351280735474e+02 3.2033445339022222e+02 1.9626513855356691e+03
 7.6054777846792220e+01 3.0024594122680838e+02 1.7799896771916149e+03
 -1.8858160973314801e+02 3.2379884635870366e+02 1.9740061661588618e+03
 -1.7841277021622079e+02 3.2384521248491251e+02 1.9724774994643190e+03
 -8.9212198182910768e+01 3.2031722271383842e+02 1.9335948388010570e+03
 1.8300467111483036e+02 2.9289186599404002e+02 1.7037202123878731e+03
 -1.8610913552767369e+02 3.2651235690713821e+02 1.9746164435507246e+03
 -1.8111029878671269e+02 3.2797237774082691e+02 1.9749044191022858e+03
 -1.6429613449246264e+02 3.2850222700009465e+02 1.9658372205269907e+03
 7.2991932664850808e+01 3.0683963478434629e+02 1.7857227243014945e+03
 1.3655502071316863e+02 3.0754362774175019e+02 1.7873093481866651e+03
 -1.1849805066794006e+02 3.3116835041160351e+02 1.9646706926970558e+03
 1.1043701562272177e+02 3.0881727890424304e+02 1.7900359644493647e+03
 -1.9010297151459963e+02 3.3189833622845828e+02 1.9767063025879681e+03
 -1.8246654582637507e+02 3.3196526740942653e+02 1.9760650616243386e+03
 -1.6033868675290799e+02 3.3063108978086660e+02 1.9619605786252423e+03
 -1.3458678902478300e+02 3.3167661362714290e+02 1.9476852707762412e+03
 1.3348530980413298e+02 3.1287465770810985e+02 1.7918551523897140e+03
 -1.2976780989333673e+02 3.3344345950883888e+02 1.9501994468061137e+03
 -1.6176876771571401e+02 3.3601459277918974e+02 1.9637000002114851e+03
 -1.8654008782677747e+02 3.3880221927471996e+02 1.9792600304669752e+03
 -1.9176875038063784e+02 3.4154967574902753e+02 1.9810658512690625e+03
 1.3860236801702328e+02 3.2180974396436147e+02 1.7966610603325687e+03
 -1.9204320269925387e+02 3.4714428248923997e+02 1.9835730212027856e+03
 -1.8694877370195698e+02 3.4720579559836500e+02 1.9832068562002212e+03
 1.0011870894936408e+02 3.2861626190209734e+02 1.8114902091745778e+03
 -1.8590156843004445e+02 3.5145567602515843e+02 1.9850310677831628e+03
 -1.7440152325697551e+02 3.5397410398733956e+02 1.9823707362954831e+03
 -1.7071301395466574e+02 3.5688738936163236e+02 1.9840031632813991e+03
 -1.6695109143496592e+02 3.5709793281575679e+02 1.9849092553912913e+03
 -1.7475512644235943e+02 3.5991382459406918e+02 1.9873906756133460e+03
 -1.9299699905290365e+02 3.6180789545372380e+02 1.9943223269431298e+03
 -1.6962636551458831e+02 3.6121784903633124e+02 1.9868070968781678e+03
 -1.6065666216193583e+02 3.6122416737703310e+02 1.9856642604444883e+03
 8.5809332533666534e+01 3.3967198747655738e+02 1.8226772921184081e+03
 9.0658103306747719e+01 3.4036860022647198e+02 1.8263620508672204e+03
 -1.6334226973802834e+02 3.6281822168829808e+02 1.9879171656306778e+03
 1.3877044079000996e+02 3.3927387318460416e+02 1.8104740447545173e+03
 -1.9186223851318360e+02 3.6463705772518563e+02 1.9952402459431232e+03
 -1.8666742747720681e+02 3.6453849550871053e+02 1.9937884733185972e+03
 -1.7878816045042848e+02 3.6415544039467494e+02 1.9901015151540405e+03
 -1.6968088525227546e+02 3.6389919553306873e+02 1.9873227088417636e+03
 -1.7366351472149950e+02 3.6547580497409530e+02 1.9895287152502390e+03
 -1.6721855405635006e+02 3.6539108723076691e+02 1.9880905796552440e+03
 -1.8016186906384578e+02 3.6691862062042640e+02 1.9913119644650883e+03
 -1.6467554987673890e+02 3.6674664658622379e+02 1.9881538006855671e+03
 -1.7372557210911302e+02 3.6816506569565740e+02 1.9900478492613227e+03
 -1.8025679623178877e+02 3.6968687166805381e+02 1.9922877613962116e+03
 -1.5702858351991088e+02 3.7075411124452552e+02 1.9879965595781550e+03
 -1.8568183926495206e+02 3.7287148761434150e+02 1.9966400716341864e+03
 -1.6236373566727397e+02 3.7252547063353012e+02 1.9914904380361450e+03
 -1.7920150177401635e+02 3.7406840428094421e+02 1.9951000267232405e+03
 -1.2550240377815111e+02 3.7437986980851775e+02 1.9893482011013846e+03
 1.7591648082913309e+02 3.4009750353384658e+02 1.7462569331757670e+03
 -1.7675685297889791e+02 3.7697242605789978e+02 1.9966522672171052e+03
 -1.2438776977470511e+02 3.7853510382706787e+02 1.9902763677008238e+03
 -1.5876415436424870e+02 3.8206860758328901e+02 1.9933105221203796e+03
 -1.6148229321402462e+02 3.8371078946421329e+02 1.9955528241969555e+03
 -1.7712311738483578e+02 3.8551405489462428e+02 2.0007411562713664e+03
 -1.8773404640853971e+02 3.8741984311447436e+02 2.0057237742116893e+03
 -1.7984590379107857e+02 3.8711603194997917e+02 2.0027797625522678e+03
 -1.9040068276739066e+02 3.9167495582490068e+02 2.0087953154453207e+03
 -1.8156481047850238e+02 3.9452996595729735e+02 2.0078652100948245e+03
 -1.7617334111919178e+02 3.9399424063458105e+02 2.0040203835484938e+03
 -1.2988306099901857e+02 3.9381082875451943e+02 1.9963206525195428e+03
 -1.7769170172664397e+02 3.9711345572562726e+02 2.0069958457435866e+03
 -1.7491680989299397e+02 3.9660261815440191e+02 2.0035933928546960e+03
 -1.7227342859680877e+02 3.9771153752288177e+02 2.0020327736245029e+03
 -1.5786999935450359e+02 3.9691999243725195e+02 1.9952977577911215e+03
 -1.2741015981889578e+02 3.9815317668663641e+02 1.9987277788246513e+03
 -1.9187222183900280e+02 4.0003249926314749e+02 2.0125469941581769e+03
 -1.8457279247337965e+02 4.0064907280803300e+02 2.0130329228692560e+03
 -1.9585589445406734e+02 4.0157964299858833e+02 2.0146843453324063e+03
 1.0683462980644937e+02 3.7293243863846345e+02 1.8189126150754898e+03
 1.6678981038697347e+02 3.6398518399644826e+02 1.7652306152107942e+03
 -1.7678030636520714e+02 4.0322613693965957e+02 2.0117216217803893e+03
 1.3233378829296436e+02 3.7149793321218090e+02 1.8033123502906469e+03
 -1.8093567051990559e+02 4.0639165921485721e+02 2.0150252874811683e+03
 5.4257050627749230e+01 3.8379229508544898e+02 1.8659983225928829e+03
 1.1179389704324304e+02 3.8205225369617733e+02 1.8389405000988434e+03
 -1.7194013966215931e+02 4.1059538486103492e+02 2.0154801099289500e+03
 -1.8614798009895026e+02 4.1466940366957016e+02 2.0192903300229168e+03
 -1.6955150674459964e+02 4.1509283476094481e+02 2.0182954778354344e+03
 1.1288707766070459e+02 3.8580125000045189e+02 1.8313987978984069e+03
 8.5870358629440034e+01 3.9261511313278351e+02 1.8638584690865489e+03
 -1.7650594974572300e+02 4.1887283821412507e+02 2.0253723812234250e+03
 -1.6959730018293712e+02 4.1778418922824812e+02 2.0185152262185313e+03
 7.4682448562389254e+01 3.9599087607333536e+02 1.8762450765040558e+03
 8.0469628571437838e+01 3.9903455104643177e+02 1.8725713256671816e+03
 -1.7918048721300775e+02 4.2419951784652528e+02 2.0257047662184177e+03
 -1.7236290199409481e+02 4.2339820218068508e+02 2.0205787710836016e+03
 -1.7921221598453741e+02 4.2687404301224825e+02 2.0257848461458245e+03
 -1.6826308088219560e+02 4.2539181903020767e+02 2.0164953832127719e+03
 1.6107187150900234e+02 3.8745919865344888e+02 1.7857413831931426e+03
 -1.0616024017705620e+02 4.5240175691402015e+02 2.1590993964791242e+03
 1.0713249559248207e+02 4.0305932399370329e+02 1.8471019051121255e+03
 -1.5012669745160082e+02 4.3477185191305313e+02 2.0157015572474502e+03
 -1.0554998886224516e+02 4.5271548066395616e+02 2.1108866716827379e+03
 -1.7267082799229507e+02 4.3848265820235025e+02 2.0232827447593309e+03
 -1.6999250276727287e+02 4.3830894942678373e+02 2.0221515352006445e+03
 -1.5009365855603298e+02 4.3711664526525175e+02 2.0139744678142272e+03
 1.2781172729047486e+02 3.9896550563711122e+02 1.7913021647942030e+03
 -1.5447867029976189e+02 4.4150946092651554e+02 2.0237856445957525e+03
 -1.2527750571908099e+02 4.5362909739767838e+02 2.0869773899877646e+03
 -1.9729743070268916e+02 4.4283555252166082e+02 2.0309570059341070e+03
 -1.6553905614051740e+02 4.4868254447147439e+02 2.0345671622078298e+03
 -1.9618204245874151e+02 4.4841925429393791e+02 2.0317650589378193e+03
 -1.9454457343906159e+02 4.5134791712539777e+02 2.0257221335105121e+03
 -1.8830038918450381e+02 4.5221857339403124e+02 2.0297201836783368e+03
 -1.7632961022142499e+02 4.6032501885167176e+02 2.0616041416667740e+03
 -1.6455282201937132e+02 4.5618050185210120e+02 2.0385894752876395e+03
 -1.9216156881662627e+02 4.5574353388180634e+02 2.0272386734238037e+03
 -1.7714978605475216e+02 4.6144918524494517e+02 2.0537830941405928e+03
 -1.9646657087906914e+02 4.5798120370907031e+02 2.0321115667019783e+03
 -1.6630142947927476e+02 4.6154837197565155e+02 2.0456608512155374e+03
 1.6946526467371802e+02 4.1758491852045722e+02 1.8010710406335390e+03
 -1.8367299113173590e+02 4.6163477818775527e+02 2.0360324993994116e+03
 -1.9021471910670115e+02 4.6276640767685069e+02 2.0355020425921857e+03
 -1.9696523920281396e+02 4.6449906716963187e+02 2.0380809929508519e+03
 -1.9288718797446589e+02 4.6419045065057162e+02 2.0362335798157717e+03
 1.3711059056139592e+02 4.2698132043989676e+02 1.8250043526015070e+03
 -1.3070613978816496e+02 4.7714704826638211e+02 2.0815325170249530e+03
 -1.9188863355400753e+02 4.6898735518710583e+02 2.0400460856469299e+03
 -1.8673773303683973e+02 4.7064991052726168e+02 2.0411898494547584e+03
 -1.6125381896902155e+02 4.7264509783719996e+02 2.0468080588949033e+03
 -1.9735730199694623e+02 4.7209642561283829e+02 2.0426466201798448e+03
 1.3027376244587745e+02 4.3501857939960007e+02 1.8291257083624669e+03
 -1.9454758019818755e+02 4.7428834588742637e+02 2.0401225640509997e+03
 -1.8518162823583938e+02 4.7391812880461435e+02 2.0375387526430120e+03
 -1.8928502909811286e+02 4.7567574139051158e+02 2.0399902428394389e+03
 -1.8234621802176486e+02 4.7461449921028361e+02 2.0341669564406368e+03
 -1.9632737326391916e+02 4.7820741395116562e+02 2.0463912830326913e+03
 1.5572261509776749e+02 4.2672899047841969e+02 1.7709843004418997e+03
 -1.9347481560684915e+02 4.7893595334058426e+02 2.0431893402856883e+03
 -1.9074046384330816e+02 4.7866802012808665e+02 2.0416241127822732e+03
 -1.8371576544912676e+02 4.7861829597340636e+02 2.0341594025905092e+03
 -1.9605166133031054e+02 4.8131489649272817e+02 2.0418211056816738e+03
 -1.8118883974644777e+02 4.8024493575897577e+02 2.0353770116914295e+03
 -1.5626285797574764e+02 4.8524345407882078e+02 2.0485913809945055e+03
 1.8340817717109360e+02 4.3475940442536023e+02 1.7885844019888423e+03
 -1.9732462536884594e+02 4.8380143277760590e+02 2.0410598566360452e+03
 -1.8646407845081069e+02 4.8288041806344887e+02 2.0356823505337775e+03
 -1.4564865291279685e+02 4.8632643530814209e+02 2.0464263007208415e+03
 -1.8254277349136649e+02 4.8428417782447150e+02 2.0357275248201170e+03
 -1.7607646578504247e+02 4.8472221949996822e+02 2.0373869609893391e+03
 -1.5367501587024671e+02 4.8799642713324431e+02 2.0485938612846517e+03
 -1.8619968234582308e+02 4.8460087088529104e+02 2.0309911111443053e+03
 -1.7839555776415136e+02 4.8617944557489500e+02 2.0316046331587650e+03
 1.7996780171432881e+01 4.7345121100217358e+02 1.9583027556492068e+03
 -1.5267229757764872e+02 4.9447013334527713e+02 2.0536463967324707e+03
 1.7921056312314789e+02 4.4292849896024347e+02 1.7936184883103124e+03
 1.8121326498312249e+02 4.4247418274650664e+02 1.7914231969171024e+03
 1.8335474560108409e+02 4.4217558061246592e+02 1.7900259307809933e+03
 -1.7127120942491072e+02 4.8790309030924453e+02 2.0199661859121036e+03
 1.7950681284572614e+01 4.7748818793640299e+02 1.9590513153084628e+03
 1.7612787109156781e+02 4.4478200116191891e+02 1.7967973350481261e+03
 -1.9528203158784024e+02 4.9484237536530742e+02 2.0491002414577988e+03
 -1.8074266401045705e+02 4.8570240808484584e+02 2.0035514949873982e+03
 -1.8696502355743883e+02 4.8610548287111072e+02 1.9996413746334094e+03
 -1.5284121393457934e+02 4.9909630594883822e+02 2.0564278570747542e+03
 2.0369205365340715e+01 4.8101966156085751e+02 1.9573787435871341e+03
 1.7242658983794865e+02 4.4842003723239861e+02 1.7969950797785702e+03
 1.8019778336420629e+02 4.4765110916633921e+02 1.7934982184429041e+03
 -2.0408104788680410e+02 5.1202074081968237e+02 2.1098388673584832e+03
 1.6196699303354453e+02 4.5019475285419497e+02 1.7994253982281880e+03
 -2.0011618073903725e+02 5.1126263530797462e+02 2.1033142288469498e+03
 -1.8622935223138467e+02 4.8745669135319201e+02 1.9873139152381764e+03
 1.7482722898256000e+02 4.5075620214584944e+02 1.7970303766660929e+03
 1.7811076630334171e+02 4.5041037696161078e+02 1.7954030988326049e+03
 -1.7921812645034058e+02 5.0070903309183416e+02 2.0436423489152185e+03
 -1.8294349062183360e+02 5.0583730270962974e+02 2.0619779114909675e+03
 -1.5171957551698412e+02 5.0644557758037058e+02 2.0591140362329174e+03
 -4.5798762758304132e+00 4.8563160517418498e+02 1.9574543780132169e+03
 -2.0432304316480133e+02 5.1871989144790723e+02 2.1167692784386541e+03
 -1.9848627994540482e+02 5.1427129055103535e+02 2.0973327292432959e+03
 -1.9419573399774080e+02 5.0902296003437374e+02 2.0715934650835716e+03
 2.0309737706348365e+01 4.8758808673221279e+02 1.9580018613682817e+03
 1.7816260641948705e+02 4.5412103454510856e+02 1.7961872709419254e+03
 1.8131976733566600e+02 4.5350550089295172e+02 1.7934310260965597e+03
 -1.8817554098404673e+02 5.0810359876732173e+02 2.0603050051370665e+03
 -1.8272935096634760e+02 5.0770537494844160e+02 2.0580038039526812e+03
 -1.4639853308877244e+02 5.0894397177452248e+02 2.0577031074331862e+03
 1.4807072094314793e+02 4.4476770719099108e+02 1.7467010870579597e+03
 -1.7013709790272739e+02 5.0659320614337963e+02 2.0454806627895928e+03
 1.7599215781055315e+02 4.5690287942013094e+02 1.7980392295043391e+03
 -2.0094866007239889e+02 5.2186323477305257e+02 2.1142121621250903e+03
 -1.9309505816934069e+02 5.1833112744196580e+02 2.0964060208771198e+03
 -1.8155600880778820e+02 5.1091065007039077e+02 2.0603198045343993e+03
 -1.6726715584751904e+02 5.0689311499505072e+02 2.0402880513837285e+03
 1.5772185731003677e+02 4.4943515548010163e+02 1.7575645134704691e+03
 -1.8999965675886929e+02 5.1831404194861022e+02 2.0894411760100706e+03
 -1.7786807028720128e+02 5.1336390522273041e+02 2.0651771591191714e+03
 1.3078227119245554e+02 4.7092902233229501e+02 1.8499741827684604e+03
 1.3641239428571285e+02 4.7019512662323814e+02 1.8465789167239425e+03
 1.5739707827757505e+02 4.4678877820479494e+02 1.7403142468498420e+03
 1.6178410934803256e+02 4.4326604256280075e+02 1.7244056186348878e+03
 -1.8532791272829479e+02 5.1742273993710603e+02 2.0783757500545089e+03
 -9.3204309433606038e+00 4.9169963393727960e+02 1.9481788400093042e+03
 1.7657398703599844e+02 4.5631763996292409e+02 1.7792055694934027e+03
 2.1629083936208531e+01 4.9568328576942747e+02 1.9598636129730087e+03
 1.5855846899046833e+02 4.4768435659600931e+02 1.7339460003404931e+03
 -2.0277115850718778e+02 5.2870530057458575e+02 2.1204900848887364e+03
 -1.8650459645147646e+02 5.1945782168516541e+02 2.0752313308118091e+03
 1.9131814489223114e+01 4.9720669650505550e+02 1.9610594728088927e+03
 1.4849678589207193e+02 4.4927834655314155e+02 1.7358950550779052e+03
 1.7563176135708542e+02 4.5574817387754342e+02 1.7660336866284899e+03
 -2.0328119191848890e+02 5.3313269592298616e+02 2.1284802943443301e+03
 -1.9509622558475155e+02 5.3302027887048939e+02 2.1263896212476752e+03
 -1.8312674806875950e+02 5.2446298208067378e+02 2.0855185670747296e+03
 -1.4291106368358818e+01 4.9805456169364464e+02 1.9539423214990798e+03
 2.1676573871212970e+01 4.9987908037328668e+02 1.9614566906801538e+03
 1.3691091459079669e+02 4.7649529430718349e+02 1.8421088604350248e+03
 1.5764911863755182e+02 4.5480570590544454e+02 1.7450600820529676e+03
 1.6044359131421135e+02 4.5383123930599641e+02 1.7407527926240264e+03
 -1.9180065198114349e+02 5.3378781834802044e+02 2.1165851573446907e+03
 1.8811180402054873e+01 5.0144457805255871e+02 1.9567219886756980e+03
 1.5498440351937367e+02 4.5549856816027403e+02 1.7430063932757575e+03
 -1.9834429209758068e+02 5.3876657484764803e+02 2.1339688425726767e+03
 -1.8229701252572883e+02 5.3031214441561042e+02 2.0933378127388719e+03
 1.7637125027283099e+02 4.6286337836619941e+02 1.7718047215461695e+03
 -1.4104975036438612e+01 5.0490729387492928e+02 1.9617627389623472e+03
 -4.1741936906894148e+00 5.0372299387610855e+02 1.9559094035052970e+03
 1.3121342091850349e+02 4.8561377560030758e+02 1.8664328609470504e+03
 1.6240615860517934e+02 4.5538889057520390e+02 1.7324200668144731e+03
 -2.0391555868888508e+02 5.3769735524109205e+02 2.1176898515719663e+03
 1.6023979864231435e+02 4.5691630348642752e+02 1.7339973886993907e+03
 1.7715416379669662e+02 4.6277431241223144e+02 1.7613445446590017e+03
 -2.0039154231179000e+02 5.4049061225046614e+02 2.1227131298356821e+03
 -1.8727724570187743e+02 5.3755318103213096e+02 2.1078362035759264e+03
 1.3523153555180346e+02 4.8418740447280470e+02 1.8493007422351434e+03
 -1.9861379510903419e+02 5.4965556281263582e+02 2.1579333003155380e+03
 -1.9333153480116050e+02 5.4591320286082896e+02 2.1404355237275149e+03
 1.6514763259017664e+02 4.5750986975626688e+02 1.7270946836122698e+03
 -1.8149809383707742e+02 5.4433806821309042e+02 2.1258107280609333e+03
 -4.1195062678279486e+00 5.0947554263590450e+02 1.9587072047421025e+03
 1.6893086934866052e+01 5.0689607624428010e+02 1.9464238839931904e+03
 1.5468234496443478e+02 4.6256691327632313e+02 1.7435968442037447e+03
 1.7503703686682229e+02 4.6681565571735410e+02 1.7636882900925168e+03
 -2.0212225032761691e+02 5.5037470967030026e+02 2.1490650048318175e+03
 -1.8395173961637698e+02 5.3930286184783949e+02 2.0966830783442965e+03
 1.5966553003518226e+02 4.6624113745090023e+02 1.7544557721786941e+03
 1.6406555858926970e+02 4.6766422472249502e+02 1.7606211447772816e+03
 -1.9295026696407851e+02 5.4869918648902512e+02 2.1339957116171081e+03
 -1.8190765683883529e+02 5.4324864821908670e+02 2.1081608175258407e+03
 -1.4621169844580027e+01 5.1058293915200755e+02 1.9521954181188275e+03
 1.8194445512252852e+01 5.1133496453589845e+02 1.9489558096420164e+03
 1.7408488300221953e+02 4.6786192759529968e+02 1.7540761895823910e+03
 -1.7997910420870068e+02 5.4364151067580963e+02 2.0972814059754573e+03
 1.3137250237909163e+02 4.9616968883509162e+02 1.8695706695393592e+03
 1.6655398383582437e+02 4.7885847710754422e+02 1.7937857236186208e+03
 -1.8678538739386792e+02 5.4504183352283621e+02 2.0978926010708278e+03
 -2.0405215830236301e+02 5.5062034667628814e+02 2.1202473843974299e+03
 1.6808725950159776e+01 5.1483318087700502e+02 1.9474689991755722e+03
 -1.7903867049858550e+02 5.4937108664252264e+02 2.1044265140725192e+03
 1.7798384182276598e+02 4.8453054106575320e+02 1.8023311078903921e+03
 -1.3274150607658771e+02 5.4476969263480260e+02 2.0711437826930860e+03
 1.6044864173652431e+02 4.8743345112621688e+02 1.8101178462967273e+03
 -1.9093174092013783e+02 5.5069251417062321e+02 2.0989050912916468e+03
 -1.8269990148511923e+02 5.5027378094669075e+02 2.0963010261824779e+03
 -1.0130339623102653e+01 5.2420137730369652e+02 1.9727482285385490e+03
 1.2807800548549702e+02 4.9848236908958961e+02 1.8530997735764918e+03
 1.6733075611987931e+02 4.8639482852521490e+02 1.8006130476896139e+03
 -2.0162647384205337e+02 5.5275968597748226e+02 2.1053974337805976e+03
 -1.8806119584905099e+02 5.5136568362739206e+02 2.0954622455816589e+03
 -1.8558970525772639e+02 5.5233064406519156e+02 2.0995850474577928e+03
 -1.5483974236407015e+01 5.3153062609760832e+02 2.0002109844512061e+03
 1.3277098750908877e+02 4.9950323638900568e+02 1.8521843996559139e+03
 1.8168866098219937e+02 4.9640154724048034e+02 1.8356558387455486e+03
 -1.9665398788745574e+02 5.5421731659848751e+02 2.1024055933190461e+03
 -1.9357276910983504e+02 5.5295344287041166e+02 2.0966964556614012e+03
 -1.9093306804109460e+02 5.5330620908301273e+02 2.0981685700675548e+03
 -1.7641652094510638e+02 5.5515147499425973e+02 2.1054143665172246e+03
 -1.3162747883454159e+02 5.5059419247126755e+02 2.0789345734880085e+03
 1.6576002603646754e+02 4.9015519777284851e+02 1.8064850050886910e+03
 1.7173773112174379e+02 4.8800590805850106e+02 1.7976619239237978e+03
 1.5676998603949686e+01 5.2326234781901076e+02 1.9509472211126977e+03
 1.3831776894643883e+02 5.0352775770243380e+02 1.8587814715852342e+03
 1.7504938385864293e+02 4.8947922371435510e+02 1.7984405583198204e+03
 -1.9691769153575694e+02 5.5708940385582832e+02 2.1016617941017507e+03
 -1.8940003322690262e+02 5.5518566941294318e+02 2.0940549618050245e+03
 -3.5282880896141600e+00 5.3038276648684393e+02 1.9771648289384466e+03
 1.5805926437894379e+02 4.9360258865381900e+02 1.8110196356179652e+03
 1.6487189970849073e+02 4.9308876313680827e+02 1.8088464928153983e+03
 1.6709463737731531e+02 4.9283254899511485e+02 1.8077691731199304e+03
 -1.9335807529903309e+02 5.5597685348414939e+02 2.0915603844605139e+03
 -1.7906068483118122e+02 5.5874218557154938e+02 2.1030656445358986e+03
 1.5619433032055841e+02 4.9570619789378901e+02 1.8148614925069462e+03
 1.6082367462468167e+02 4.9548080392145118e+02 1.8139019976186537e+03
 1.7088319585673523e+02 4.9453129042108264e+02 1.8098387299046858e+03
 -1.7187593304000319e+02 5.5820302245427376e+02 2.0939893536360437e+03
 -6.1010913580682242e+00 5.3990169356195952e+02 2.0080457909552347e+03
 -2.0371836283652499e+02 5.6228677922481859e+02 2.1089555594755207e+03
 -1.9859493907176596e+02 5.6123996357755709e+02 2.1002383327108973e+03
 -1.7591719149416437e+02 5.5940921201806123e+02 2.0934941607349474e+03
 -1.6511716941808523e+01 5.4151227864628834e+02 2.0096058401241621e+03
 1.2798681492218369e+01 5.2640362070512992e+02 1.9427870941368556e+03
 1.6655889755911982e+01 5.2681238210180379e+02 1.9444102707406719e+03
 1.3174927461337211e+02 5.0755867142037317e+02 1.8552630639080862e+03
 1.8012984245402092e+02 4.9978071008984028e+02 1.8208135133826465e+03
 -1.9014753845284744e+02 5.5793530187469821e+02 2.0818137358388362e+03
 -1.5802365485492040e+00 5.4452664722055999e+02 2.0175216957637608e+03
 1.2698813733169415e+02 5.0904081151389477e+02 1.8563699476534916e+03
 1.6952257302647303e+02 4.9794454925665940e+02 1.8091971559900489e+03
 -2.0296861301570743e+02 5.6595787425299307e+02 2.1107042318519752e+03
 -1.8663136230703583e+02 5.6151951806530326e+02 2.0914246751727896e+03
 1.5597895244293366e+02 5.0022718220470659e+02 1.8138499843730472e+03
 -1.8047425815823894e+02 5.6567242225968073e+02 2.1033670779300624e+03
 -1.6389567328304867e+02 5.6439265306354889e+02 2.0966629393673229e+03
 -8.7958506940524188e+00 5.4516965233457108e+02 2.0079936542847956e+03
 1.9160774119841369e+02 5.2589235758163488e+02 1.9184774293386988e+03
 1.9902041172936043e+02 5.2968165411125403e+02 1.9345605292186060e+03
 1.6654037443387818e+02 5.0239712056879949e+02 1.8129934580665133e+03
 -2.0199398495605550e+02 5.7028796361290290e+02 2.1095773929868710e+03
 -1.8665134352887054e+02 5.6566633125573367e+02 2.0916662376632235e+03
 -1.9914686404156992e+01 5.4406681058404888e+02 1.9917119485067740e+03
 -1.7246783488527846e+01 5.4450922623315432e+02 1.9936048901329409e+03
 1.8719881446879491e+01 5.4427473209778304e+02 1.9910241354983257e+03
 -1.9220022355670403e+02 5.6752780652775630e+02 2.0941977885604206e+03
 -1.8424721434364491e+02 5.6831443603796879e+02 2.0970950913945817e+03
 -4.5413213954870235e+00 5.4460927033580049e+02 1.9880004626701577e+03
 1.2694376703939407e+02 5.1791667802458664e+02 1.8677520817952302e+03
 1.6424977388559861e+02 5.0494299376943258e+02 1.8137111081849750e+03
 1.9895360621038310e+02 5.4056746315554335e+02 1.9610720170053778e+03
 2.0696293353324549e+02 5.4769847036030126e+02 1.9905661917242116e+03
 -2.0518102895818782e+02 5.7634935599307767e+02 2.1269784066775965e+03
 -1.9726042103128654e+02 5.7197076589617575e+02 2.1067256112291948e+03
 1.7476316300558159e+02 5.1051869449064088e+02 1.8311177625196976e+03
 -1.9966742453108125e+02 5.7267174131455954e+02 2.1048705417377878e+03
 -3.7265496948143473e+00 5.5116725619457850e+02 2.0053681265530104e+03
 -7.1662762428166848e+00 5.4883558751465989e+02 1.9892308384162013e+03
 1.7182756702317670e+02 5.1341888593774672e+02 1.8336510974787545e+03
 1.9959682152243246e+02 5.4825294373756924e+02 1.9764017842642177e+03
 -2.0335928388223715e+02 5.7875801532529442e+02 2.1191343615459296e+03
 -1.8558619373060068e+02 5.7360437993682262e+02 2.0963443158356677e+03
 1.8426777174136173e+01 5.4283177014110436e+02 1.9579079795780283e+03
 1.6226589463194853e+02 5.1234016467542028e+02 1.8246012256371312e+03
 -1.7260012947111429e+02 5.6501633380872920e+02 2.0533921149671260e+03
 -1.8728519172790403e+01 5.5224121386566821e+02 1.9928581422919538e+03
 -1.0905334744488933e+01 5.5275666790715229e+02 1.9947792740772281e+03
 1.5532891310276176e+02 5.1387139984422254e+02 1.8260583526641185e+03
 -2.0161906742916054e+02 5.7965350360438106e+02 2.1103009139188971e+03
 -1.7871560193854324e+02 5.6977395361002777e+02 2.0679998417466118e+03
 -1.0436985499433684e+00 5.5650014785866676e+02 2.0098425017071436e+03
 1.7702068819114211e+02 5.1932162166688818e+02 1.8417758122273779e+03
 -1.9746557296005361e+02 5.8053612997548032e+02 2.1075328026851184e+03
 -1.9236683258309273e+02 5.7740132219289933e+02 2.0951521261690586e+03
 -1.8994766726948254e+02 5.7863256204726122e+02 2.1002580077542943e+03
 -1.3945212666031426e+02 5.7995928601782680e+02 2.0985783968821238e+03
 1.7926883501374596e+02 5.4027134351115103e+02 1.9247277209444103e+03
 1.8571907322818535e+02 5.4548079254113077e+02 1.9455631033080792e+03
 -2.0553471538398853e+02 5.8345082598665772e+02 2.1179885927062073e+03
 -2.2823877515835147e+01 5.5414350274190451e+02 1.9847194697681823e+03
 -9.7333930210552104e+00 5.5598325816700799e+02 1.9918702531690483e+03
 -5.8478928271769552e+00 5.5586735342366967e+02 1.9913518583015966e+03
 1.3528707900618957e+02 5.5253850368733117e+02 1.9701673165282109e+03
 1.4058886941521263e+02 5.5284323251280546e+02 1.9714085519109183e+03
 1.6008970564831941e+02 5.3178621141021983e+02 1.8849004500523326e+03
 1.6646511376546533e+02 5.3199309073271615e+02 1.8858562126866725e+03
 1.7423788493983832e+02 5.3706532149470570e+02 1.9064922145289734e+03
 1.6642879219350957e+02 5.0916495606120509e+02 1.7932227928833793e+03
 1.7859001937367077e+02 5.2344541301349898e+02 1.8479043970009639e+03
 -1.8661267933009583e+02 5.7879526354204108e+02 2.0892316108820646e+03
 -1.8423895292764004e+02 5.8015889503671156e+02 2.0947639658757294e+03
 2.2116816383320224e+01 5.6208717017537879e+02 2.0105519204061795e+03
 -1.9883842843866245e+02 5.8397805802942241e+02 2.1038020322929387e+03
 1.7695474666833064e+02 5.4203023024888455e+02 1.9166737299107083e+03
 1.8341247542938686e+02 5.3006422676223815e+02 1.8645667595494815e+03
 -1.3529230878005494e+01 5.6113764368648799e+02 1.9969424638365390e+03
 1.2679363836926582e+02 5.3563346164140819e+02 1.8796313568760527e+03
 1.7208642312170934e+02 5.4609039235454270e+02 1.9239314811866939e+03
 1.8391356439664528e+02 5.5100163112343591e+02 1.9421131609229956e+03
 1.9923942914627364e+02 5.5951371778924897e+02 1.9747396884440411e+03
 -2.0518120038076117e+02 5.9126777646393919e+02 2.1260679822570614e+03
 -1.9433428078637010e+02 5.9852135463811283e+02 2.1484725003312187e+03
 -1.9052301039346224e+02 5.9998313941992899e+02 2.1542863099800416e+03
 -1.0674623184229425e+01 5.6637239617892988e+02 2.0074212484838470e+03
 -3.8166396970686973e+00 5.6909211627447849e+02 2.0182513477111436e+03
 1.2403018865820188e+01 5.6420345115771761e+02 1.9979590052353435e+03
 1.7981680619146894e+02 5.5021703027027604e+02 1.9352631825514368e+03
 -1.8437512050881391e+01 5.6828255857961187e+02 2.0100578319569038e+03
 2.0140800074524186e+01 5.6539042276672899e+02 1.9972331051267583e+03
 -1.9789048240410042e+02 5.9400773553571275e+02 2.1191085521137416e+03
 -1.3286056465604654e+01 5.6941546249651640e+02 2.0090685547752266e+03
 1.2306354666786504e+02 5.3929146348726397e+02 1.8795219574417231e+03
 1.7603476635487431e+02 5.5232607041148344e+02 1.9340163857874231e+03
 2.0113676872075257e+02 5.6667093944681142e+02 1.9879577144939824e+03
 -2.0123855193464814e+02 5.9389085413974692e+02 2.1154330935270300e+03
 -1.8049441483517228e+02 6.0264446050496906e+02 2.1467953049328926e+03
 -1.5606675298114573e+02 5.9380064235748330e+02 2.1055447600467446e+03
 1.2534673235531852e+01 5.6902226943476501e+02 2.0015744077226639e+03
 2.1498143837170275e+01 5.6842768883456222e+02 1.9988886140363520e+03
 1.6291033436473893e+02 5.5432463443866902e+02 1.9377562238773303e+03
 1.6871383557384371e+02 5.5332946453852446e+02 1.9337129224104053e+03
 1.7059821968216244e+02 5.5244802492736346e+02 1.9298543285393264e+03
 -1.8534062154747079e+02 6.0680535229285897e+02 2.1582657573383422e+03
 1.6210088475406717e+01 5.6932889686648048e+02 1.9973457221245956e+03
 1.5932526376253296e+02 5.6892112373653026e+02 1.9942809093321000e+03
 1.8592802347592254e+02 5.6347928266205997e+02 1.9643431008050100e+03
 -1.9825822126622410e+02 5.9943235810375938e+02 2.1242203269671036e+03
 1.6146751085532813e+02 5.5649337518541597e+02 1.9363259503230618e+03
 2.0232735796986267e+02 5.6845301623138391e+02 1.9792199056062746e+03
 -1.6795813594673191e+01 5.7915292854691472e+02 2.0270058046760978e+03
 1.2059232192264608e+02 5.4713124287528751e+02 1.8909836664507750e+03
 1.6927654128463615e+02 5.5597616836046370e+02 1.9289862652843440e+03
 1.9130572093426400e+02 5.6943408739072709e+02 1.9771930111362360e+03
 -1.9848510384498704e+02 6.0335155722798663e+02 2.1293529605271533e+03
 -1.7396274640615948e+02 6.0978444284304362e+02 2.1521870375904823e+03
 1.5926837243767118e+01 5.7229875855897785e+02 1.9933148365572133e+03
 1.6482222835699699e+02 5.5827517144435922e+02 1.9332340710686553e+03
 1.7247659737620145e+02 5.5472173630735813e+02 1.9181405504487336e+03
 1.7449274562118288e+02 5.5466848653368049e+02 1.9171670276023503e+03
 1.8775513589269943e+02 5.7101182626965192e+02 1.9786217053835423e+03
 1.9678137484778364e+02 5.7313392986513054e+02 1.9871187777360683e+03
 2.0055202151913090e+02 5.7494274574872418e+02 1.9945386762365483e+03
 -1.8662133222486668e+02 6.1163628929207255e+02 2.1547603290828674e+03
 1.5636324189107373e+02 5.6048092769983123e+02 1.9368937583700088e+03
 -2.0097380502390354e+02 6.0554349704232004e+02 2.1278888789490575e+03
 -1.8080512869759055e+01 5.8431451408673399e+02 2.0315688497792046e+03
 -1.1612908309725542e+01 5.8347195973957685e+02 2.0279409849818103e+03
 1.5682400150525280e+02 5.5814117591193872e+02 1.9221465035646415e+03
 1.6935337345555186e+02 5.5606265540927257e+02 1.9135664454868149e+03
 1.8105517342009014e+02 5.6091054665805632e+02 1.9310843567662721e+03
 -2.0350697954490155e+02 6.0642936985714005e+02 2.1265868078246872e+03
 -1.9083404618997653e+02 6.1444504238648824e+02 2.1548867031447062e+03
 1.8440593685791892e+01 5.7626343644913743e+02 1.9932880058464705e+03
 1.6140737825437898e+02 5.5628006911380237e+02 1.9096779409937756e+03
 -1.7667378664574142e+02 6.1455367822062863e+02 2.1484342437367445e+03
 1.5388984626724084e+02 5.5755911964740994e+02 1.9097715692670904e+03
 1.6540598261187753e+02 5.5592616533268460e+02 1.9031214019994559e+03
 1.7371420745744052e+02 5.6037282558159382e+02 1.9200755471841885e+03
 1.9190039810182043e+02 5.7684890369520463e+02 1.9810755352328347e+03
 2.0302828834970154e+02 5.8242618129552727e+02 2.0032972082386968e+03
 -1.9427312761299848e+02 6.1438383073162220e+02 2.1438672132979314e+03
 -1.7264507765336353e+02 6.1659543617249074e+02 2.1507148845432293e+03
 1.8705610715938056e+02 5.8023995635244478e+02 1.9901578904592316e+03
 1.9104296433701236e+02 5.8110555334424657e+02 1.9928935714376155e+03
 -2.0578392108296231e+02 6.0966440094301799e+02 2.1244946204483126e+03
 -1.9127353909812373e+02 6.2025563674112982e+02 2.1610377092590224e+03
 -1.8727851983934409e+02 6.2109529755494509e+02 2.1640800549251203e+03
 -1.7815124149302576e+02 6.1754272837309861e+02 2.1490669543827325e+03
 1.5056839644093142e+02 5.5845757029845618e+02 1.9034849160516110e+03
 1.5542776363763576e+02 5.5826618839329660e+02 1.9026766852032063e+03
 1.8227179194105241e+02 5.7754380027057425e+02 1.9744544364832582e+03
 -1.9411078374716183e+02 6.2172186785117094e+02 2.1613230375169423e+03
 -1.7964890359640322e+01 5.9254477882457661e+02 2.0377691961464577e+03
 -7.6823851001611150e+00 5.9053977441293102e+02 2.0294508614951471e+03
 2.0339699122166610e+02 5.8706069618777451e+02 2.0060305068326063e+03
 -1.9898076311050306e+02 6.1755881711407460e+02 2.1437241868788929e+03
 -1.9435025622581344e+02 6.1213715125859108e+02 2.1169120241745059e+03
 1.0883393792202305e+01 5.8457136359326182e+02 2.0003491083479896e+03
 1.9361621614608872e+01 5.8144787760863494e+02 1.9878121820649339e+03
 1.6611091404709589e+02 5.6024628813168158e+02 1.9002838062891924e+03
 -3.6754828918661424e+00 5.9315367463051268e+02 2.0293646002931405e+03
 1.4908498148107424e+02 5.6166226251960813e+02 1.9014932586197519e+03
 1.5861082172736471e+02 5.6085343030455363e+02 1.8982910721166259e+03
 -2.0017136943903685e+02 6.1859497662756132e+02 2.1352426736634461e+03
 -1.7615101606560157e+02 6.1987030815963476e+02 2.1356585513309979e+03
 -1.7854484353475311e+01 5.9786060286657903e+02 2.0429044602861495e+03
 1.0921116515482783e+01 5.8756457052602434e+02 2.0017885716308831e+03
 1.7195723264064915e+02 5.6625429770644087e+02 1.9143195099433397e+03
 1.9690410761507331e+02 5.8647452057130965e+02 1.9884303858135331e+03
 -2.0571372608885292e+02 6.1622151216917098e+02 2.1229415478607466e+03
 -2.0388790035866063e+02 6.1930580496608059e+02 2.1343649796544628e+03
 1.4918417643865891e+02 5.6439889312610001e+02 1.9024341469042392e+03
 1.5511715267621130e+02 5.6388101228224843e+02 1.9003678955838379e+03
 1.8787314365824960e+02 5.8562320832639307e+02 1.9800305077592698e+03
 -1.6226378678759031e+02 6.2225794751834781e+02 2.1332916278373614e+03
 9.0489233596609608e+00 5.8688986740914015e+02 1.9889952746272556e+03
 1.3067655337234592e+01 5.8769007174933222e+02 1.9920266037668944e+03
 1.6529509749616463e+02 5.6590947737599515e+02 1.9030959994401367e+03
 1.8495939306718918e+02 5.8903582304350141e+02 1.9879610108395166e+03
 1.8937430504847384e+02 5.7625818476563711e+02 1.9424346881193321e+03
 -1.9862948343820273e+02 6.2245638352963385e+02 2.1344215190444979e+03
 -1.9649583831906472e+02 6.2441804760764808e+02 2.1411790145960686e+03
 -1.4091896253696691e+01 5.8222462905201644e+02 1.9654655300223706e+03
 1.4719156539549761e+02 5.6509238738974625e+02 1.8957503329258989e+03
 1.8289486473290458e+02 5.9250174205131634e+02 1.9975112368358352e+03
 -2.0205880698242063e+02 6.2167959377877480e+02 2.1270664781750529e+03
 -1.8620190431725089e+02 6.2710855344666436e+02 2.1428610610966334e+03
 -1.6799207983779743e+02 6.2594741529797193e+02 2.1370187108276232e+03
 1.5269238836328194e+02 5.6481121533116846e+02 1.8899846040097380e+03
 1.6104779539026254e+02 5.6692152731113151e+02 1.8978300894905824e+03
 -1.8928545484660440e+01 5.8697566554355876e+02 1.9740364379197954e+03
 1.2444142142420797e+02 5.8346513158148798e+02 1.9552474658359683e+03
 1.7013562611811594e+02 5.7486762489575131e+02 1.9225302991176318e+03
 1.8500245223638183e+02 5.7294246259533202e+02 1.9164223542656941e+03
 2.0098454574849634e+02 5.9264720170695546e+02 1.9877889293607363e+03
 -2.0563548961774180e+02 6.2707483652627377e+02 2.1368317241253262e+03
 -5.9108022091603560e+00 5.8768616151251672e+02 1.9721506958261396e+03
 1.5998652116053876e+02 5.6705458829776217e+02 1.8890878683787842e+03
 1.7571842163192181e+02 5.7903627037070248e+02 1.9341042768684804e+03
 -2.0132334179827072e+02 6.2770941771734329e+02 2.1333806579270868e+03
 -2.1456053808421391e+01 5.9018484554839199e+02 1.9764507253363336e+03
 9.9950225342070222e+00 5.9202965014716131e+02 1.9835324816071991e+03
 1.4216405318226808e+02 5.6680917597155724e+02 1.8838107279973458e+03
 1.8155002093992618e+02 5.7835847670015892e+02 1.9275663734858431e+03
 1.9127830052074970e+02 5.7897138236864396e+02 1.9287538408005159e+03
 -1.8406883569567196e+02 6.2788913107604481e+02 2.1227084553880609e+03
 -1.7754162138483744e+02 6.2987477158327840e+02 2.1302824644306143e+03
 1.2222199789294393e+02 5.9057609427764885e+02 1.9682838753772965e+03
 1.4767798547538854e+02 5.6096834658823411e+02 1.8575159197071944e+03
 -1.8785147763718999e+02 6.2738512126083378e+02 2.1153008203815484e+03
 -1.7547403252252963e+01 5.9515042180178671e+02 1.9803775112991475e+03
 1.2109768650929507e+01 5.9363934449231283e+02 1.9746928940406808e+03
 1.5574542416453738e+02 5.7098099292798940e+02 1.8852636855253954e+03
 1.5976325088359948e+02 5.7172739849699008e+02 1.8879765110618657e+03
 1.7668213355478878e+02 5.7706596403447543e+02 1.9088809373656891e+03
 1.8800460842897593e+02 5.7838241865329860e+02 1.9128429760706517e+03
 1.7515135032730917e+01 5.9659244609936775e+02 1.9808155281226291e+03
 1.6997763876470847e+02 5.7916297463525325e+02 1.9107131221911670e+03
 -1.9671276774478471e+02 6.2780439228059402e+02 2.1076671720677282e+03
 -1.9565316414772042e+02 6.3145494183697519e+02 2.1174448138866719e+03
 -1.7719731067776453e+02 6.3308151187726492e+02 2.1207392440516869e+03
 -1.6437838981716149e+02 6.3012515883351409e+02 2.1085164732637936e+03
 -1.1269553613455047e+01 5.9700354141651030e+02 1.9773182413289953e+03
 1.8403251104355448e+02 5.8219077512672868e+02 1.9183044829457892e+03
 -1.8520861879539623e+02 6.3345882545219092e+02 2.1174278767922247e+03
 -1.7974202484528615e+02 6.3349992559837915e+02 2.1172260469244620e+03
 8.4258726723599917e+00 5.9896420739494579e+02 1.9801137602646747e+03
 1.1863895643273820e+02 5.9539602131153129e+02 1.9616093885853265e+03
 1.7429823715390060e+02 5.8455965322693885e+02 1.9221089916655451e+03
 1.7619826213071804e+02 5.8257507944906308e+02 1.9153053861400113e+03
 -2.0097212630877306e+02 6.3078910333402280e+02 2.1082841889864221e+03
 -1.5016578444733312e+01 6.0063422401981734e+02 1.9813244827901328e+03
 1.6655338849743939e+02 5.8108614563906087e+02 1.9039203777478051e+03
 -1.9243894924187256e+02 6.3805334651312944e+02 2.1249832701799010e+03
 1.2050701284770390e+02 5.9920018811225145e+02 1.9664227773031780e+03
 1.7278759382969776e+02 5.9022841464141129e+02 1.9329782788754071e+03
 -1.7880480006624472e+02 6.3993832836498848e+02 2.1260350942116875e+03
 -1.8775528321374285e+01 6.0442965727329022e+02 1.9858830869069377e+03
 6.8975216815564240e+00 6.0141226907691680e+02 1.9747904626786151e+03
 1.6049346731484690e+01 6.0259012500794790e+02 1.9789056953579552e+03
 1.1445251512561263e+02 6.0144663949636470e+02 1.9700656924486548e+03
 -1.8837593788007445e+02 6.4105322451005259e+02 2.1255928409990920e+03
 -1.7194103584574222e+02 6.4138993692835811e+02 2.1258952806923144e+03
 -2.2570044156401352e+01 6.0654204704556446e+02 1.9890088168704481e+03
 1.5245765476416264e+02 5.7788234001211185e+02 1.8789276644810568e+03
 1.6144381845699516e+02 5.8162155559526047e+02 1.8924003268593297e+03
 -2.0670504018445041e+02 6.3708196260184980e+02 2.1113637671359479e+03
 -1.8043323565288748e+02 6.4407316873224204e+02 2.1313832030657782e+03
 -1.5072687821151295e+01 6.0590284031390399e+02 1.9815480571900237e+03
 9.5213205313779792e+00 6.0442092003170342e+02 1.9763125041991395e+03
 1.1574936244225708e+02 6.0408697345717178e+02 1.9702920787116718e+03
 1.8523178464490084e+02 5.8942144009277263e+02 1.9174029147921256e+03
 -1.9584075757839040e+02 6.4630204022049395e+02 2.1352847721453772e+03
 -1.1240168804015241e+01 6.0707163259666481e+02 1.9809740119020582e+03
 1.7286673357088794e+01 6.0635102013235951e+02 1.9784062496774832e+03
 1.7232058854780763e+02 5.8639144951325090e+02 1.9024415882696651e+03
 1.8163890060708883e+02 5.8808599998929094e+02 1.9082475348134481e+03
 1.8762774162391491e+02 5.9081012403856528e+02 1.9176123387239627e+03
 -1.8417954229152534e+02 6.4480926239488076e+02 2.1237914419856684e+03
 1.1415709932166482e+02 6.0623348193591858e+02 1.9684744942036332e+03
 -2.0313318808113189e+02 6.4260331784657922e+02 2.1154044837820061e+03
 -1.9883178247275427e+02 6.4247761823932217e+02 2.1155232393065771e+03
 -1.8233961643816095e+01 6.1658305800196968e+02 2.0066985087653047e+03
 -1.2579546793834082e+01 6.0926318366353951e+02 1.9795472229465786e+03
 1.7914324694241850e+02 5.8776776075538942e+02 1.8982273210929920e+03
 -1.8572327089824279e+02 6.4825414739656424e+02 2.1263103684240000e+03
 -8.3831722249489218e+00 6.1305677268238742e+02 1.9887156211211618e+03
 5.5410732476698872e+00 6.1795018513915409e+02 2.0070898041005491e+03
 8.5333135675523888e+00 6.1234998515954339e+02 1.9862419678062545e+03
 1.8713034956684416e+02 5.9353136237759315e+02 1.9138914484123547e+03
 -1.9031634656475680e+02 6.5170849940625408e+02 2.1342010331310648e+03
 -1.8082715240434948e+02 6.5270985663201600e+02 2.1374993315856700e+03
 -1.2519136511031446e+01 6.2391589284868019e+02 2.0238569867301196e+03
 1.6815421933275630e+02 5.9853716362743319e+02 1.9265100927946985e+03
 1.7427115218882020e+02 6.0054143935778188e+02 1.9339576521460933e+03
 1.7839434158054070e+02 5.9151547823075191e+02 1.9026358486654992e+03
 -1.9916715883083589e+02 6.4729477863195063e+02 2.1172217661561094e+03
 -1.8457389350214277e+02 6.5188209154284834e+02 2.1292033147499137e+03
 -1.0985650540983224e+01 6.1610601055381051e+02 1.9902729896376675e+03
 1.1461819396557833e+02 6.0979381013804448e+02 1.9622970105993729e+03
 -2.0371773710825548e+02 6.4918786554498536e+02 2.1178216030854992e+03
 5.9291129091475634e+00 6.2486486178735311e+02 2.0179111820761070e+03
 1.6379315418978314e+02 5.9415829260314899e+02 1.9017852975211588e+03
 1.6947410710708129e+02 5.8453297251155800e+02 1.8693876372989880e+03
 -1.9668519547937859e+02 6.5906685004546534e+02 2.1458085266707167e+03
 -1.9345468537795750e+02 6.5735898580694720e+02 2.1396554127558629e+03
 -1.1712289939247722e+01 6.3542621100733106e+02 2.0514354475064983e+03
