5.0557220751041399e+02 5.4646647554762251e+02 1.8123115078092210e+03
5.0910180133698833e+02 5.4695311652943769e+02 1.8140568890216077e+03
5.0677407996053932e+02 5.2498520792345744e+02 1.7419435387524443e+03
-4.5060792382992167e+02 6.8201201853298926e+02 2.3269469273767372e+03
-4.4550919020720471e+02 6.8353186256675917e+02 2.3317548126719744e+03
-4.1963000866682876e+02 6.8361431928025308e+02 2.3302344922093043e+03
-3.6288193425773119e+02 6.9136774325064016e+02 2.3522310916003394e+03
-3.4232057148862839e+02 6.9319510776704567e+02 2.3568047718640846e+03
-3.1721155981197489e+02 6.9529557283329905e+02 2.3618057550365479e+03
-2.7740872638333855e+02 6.9545039301139411e+02 2.3590985760255503e+03
-3.1551846436541302e+02 8.4432609244791456e+02 2.8551646876879799e+03
-2.5194900277855490e+02 7.8346384538834423e+02 2.6448805042021913e+03
1.5607029452378557e+01 7.8839267764434749e+02 2.6508078521793582e+03
2.3158089973139911e+02 7.5127960709818376e+02 2.5149417942143541e+03
3.2963171236496726e+02 8.3649507974641836e+02 2.8148193597137611e+03
3.4988010878974865e+02 8.3535778665294936e+02 2.8120556120677361e+03
2.7068824876802933e+02 6.3523843193300490e+02 2.1208681599105876e+03
2.7588319089652174e+02 6.3478253358481470e+02 2.1191058256934552e+03
2.8968424471717077e+02 6.3262276965647447e+02 2.1111821968549034e+03
3.0052432414557882e+02 6.3003459153545225e+02 2.1019758299729933e+03
3.0312791905454151e+02 6.2982333007409250e+02 2.1012158792710024e+03
3.2738361476432789e+02 6.2077473795320577e+02 2.0692098407955300e+03
3.3090507905165930e+02 6.2005069444841479e+02 2.0665618186459856e+03
3.3812685136600032e+02 6.1687712965414971e+02 2.0552809882914239e+03
3.7782522661013962e+02 6.0573600466117875e+02 2.0158406529094602e+03
3.9058993173995680e+02 6.0186882985731063e+02 2.0022546308558310e+03
3.9698616796145427e+02 6.0000906044100930e+02 1.9957364601290610e+03
4.9377098494092763e+02 5.6747324664786731e+02 1.8817982300258334e+03
5.0239162347706412e+02 5.4623821022257061e+02 1.8074667160840615e+03
2.0135171956365926e+02 2.3114548126196925e+02 7.5942423957775600e+02
-4.7586810000898231e+02 6.8252581221251523e+02 2.3255438568941872e+03
-3.9223646255227482e+02 6.9050369834201990e+02 2.3463595564207922e+03
-3.0657041204295899e+02 6.9705246255157101e+02 2.3615027801562946e+03
-3.1368980408168687e+02 8.5181696512243605e+02 2.8754003502430637e+03
-2.4159443070513802e+02 8.1289956909613454e+02 2.7368152496699977e+03
-3.3162343552864733e+00 7.9416170055506700e+02 2.6648390895496759e+03
2.5667451847681031e+02 7.5082940880507851e+02 2.5093953106889689e+03
2.8863122079911756e+02 7.7572455440259978e+02 2.5953259360214379e+03
2.7331221580625157e+02 6.3650325759675866e+02 2.1203384457984316e+03
3.0919389434349824e+02 6.2998926460141729e+02 2.0968814193093403e+03
3.3431256160469275e+02 6.2057698614570245e+02 2.0635828178686415e+03
3.4621445123171662e+02 6.1641096368478998e+02 2.0488699263811177e+03
3.5667943299767364e+02 6.1440262970787489e+02 2.0416267954545003e+03
3.8519675970167964e+02 6.0471366739777795e+02 2.0076072586685862e+03
4.0801321216724523e+02 5.9739351037388963e+02 1.9819652535343989e+03
4.1991033288184087e+02 5.9316181268672221e+02 1.9671137310700508e+03
4.3010606485912541e+02 5.9001503737791279e+02 1.9561903532256467e+03
4.4253559805898300e+02 5.8825890924896657e+02 1.9499961178619699e+03
4.6531691030728047e+02 5.8031814159299586e+02 1.9221035556069121e+03
4.6925195293880284e+02 5.7774818156821823e+02 1.9132621523079222e+03
4.8681596670731324e+02 5.7165054730762040e+02 1.8920164453852406e+03
4.9237909480614087e+02 5.6982068262062808e+02 1.8856507382187062e+03
4.9610806934698314e+02 5.6861647604093218e+02 1.8814904380171095e+03
4.2407513810235059e+02 4.5469943199964325e+02 1.4976129046710266e+03
-4.5887019213233236e+02 6.8596901775644221e+02 2.3307653938625554e+03
-4.2596368064167251e+02 6.8702224705817957e+02 2.3320252362436781e+03
-4.0551369190150325e+02 6.8854296494102266e+02 2.3356070446689323e+03
-3.5580714081531659e+02 6.9560388358083731e+02 2.3556597625591867e+03
-3.3259549500292871e+02 6.9840130007022231e+02 2.3632455664775330e+03
-2.7388831531412563e+02 7.0126358195471119e+02 2.3680112374971432e+03
-1.2633526503105681e+01 7.7570831133475065e+02 2.5947295483239550e+03
2.9552953225275559e+01 7.9260444121062767e+02 2.6535537700901436e+03
2.2418561350012936e+02 7.4335118626074052e+02 2.4763411703851993e+03
3.3033363950291709e+02 8.4665885399475712e+02 2.8367228779013253e+03
2.9596192084040536e+02 6.3453912418012487e+02 2.1080798422985795e+03
3.1111999502646887e+02 6.2993905531083044e+02 2.0919852997562948e+03
3.1970906080949015e+02 6.2633958182260676e+02 2.0792641764193963e+03
3.3723149344599494e+02 6.2027970639194223e+02 2.0577971558069162e+03
3.4055331318633603e+02 6.1929053035337802e+02 2.0542657743916152e+03
3.6021470556574383e+02 6.1510299721692058e+02 2.0394022255960144e+03
3.8194245239960622e+02 6.0878560678917881e+02 2.0171593920061218e+03
4.0018246425159344e+02 6.0187835183461186e+02 1.9930765247865481e+03
4.2487928314961829e+02 5.9434282241474205e+02 1.9666780101341994e+03
4.7868383069008553e+02 5.7462811737450545e+02 1.8980987590075879e+03
4.9087642877292308e+02 5.4442575436977529e+02 1.7934517531277841e+03
5.0877371309458215e+02 5.4775381512776164e+02 1.8046279135668992e+03
-4.9189406952240324e+02 6.8664986827815812e+02 2.3301630413285725e+03
-4.3833544219477687e+02 6.8877167135985576e+02 2.3338000843380642e+03
-4.1921319086216926e+02 6.8998406302238686e+02 2.3363025607362952e+03
-3.7544570865612616e+02 6.9649720110241708e+02 2.3549759909691461e+03
-3.5025379248141877e+02 6.9831122833420511e+02 2.3590479059466193e+03
-2.8505095225346435e+02 8.6688323275243908e+02 2.9000805418804589e+03
-2.2945896298057079e+02 8.1094547430882426e+02 2.7175891175050788e+03
-2.3982075786033930e+00 7.8092874927549690e+02 2.6067164368182057e+03
2.6525302644509009e+02 6.4246916529030887e+02 2.1315305201779829e+03
2.8921765905676017e+02 6.3875237681976000e+02 2.1179117212460005e+03
3.4649558084377259e+02 6.1956173610502901e+02 2.0504969987753611e+03
3.8815113975386561e+02 6.0797784085277181e+02 2.0097004568434961e+03
4.0390525934326683e+02 6.0310543424967977e+02 1.9926965460003212e+03
4.7014435951490981e+02 5.7994313777048035e+02 1.9121919818062972e+03
4.7713020623799321e+02 5.7683157936809550e+02 1.9014394383669865e+03
4.9815914781535628e+02 5.7070613446850109e+02 1.8802227698968306e+03
4.7361442081674892e+02 5.3371044466619435e+02 1.7535968441052655e+03
4.6923684903654572e+02 4.8763274045265888e+02 1.6006108090569976e+03
2.6750599902985317e+02 2.9556815794825923e+02 9.6495262108943859e+02
-4.8746942343644736e+02 6.8839504380892629e+02 2.3306639665372190e+03
-4.5547322248391157e+02 6.9082118665674057e+02 2.3365634579286916e+03
-4.2656227429127051e+02 6.9102431582225518e+02 2.3352461885413945e+03
-4.0168543302889850e+02 6.9552356289012118e+02 2.3483901909827482e+03
-2.8178258244113653e+02 7.0486828696807993e+02 2.3703650187152584e+03
-3.2930168535918085e+02 8.6876433340907568e+02 2.9132128431621209e+03
-2.5012610099854555e+02 8.0033752668832881e+02 2.6773322766329748e+03
-2.4100106884979897e+02 8.1578085118028594e+02 2.7278930047038848e+03
2.1135541853732775e+01 7.9837138038632395e+02 2.6617342955629965e+03
2.8270434489157753e+02 7.8109011039148993e+02 2.5949281749377028e+03
3.3437493630399189e+02 8.3595069854704957e+02 2.7896142972967909e+03
3.6889934082601974e+02 6.1517547718741037e+02 2.0303116046053485e+03
3.9386336934351272e+02 6.0824972713031593e+02 2.0060574118414538e+03
3.9892155835925894e+02 6.0631890461664136e+02 1.9993760159213668e+03
4.1385737169289160e+02 6.0083071368739684e+02 1.9802003295962738e+03
4.1914966533117047e+02 5.9943336559175918e+02 1.9753335068141675e+03
4.3208300620443157e+02 5.9490024526581033e+02 1.9596928782163334e+03
4.5844547886023554e+02 5.8761637581689058e+02 1.9343045488312919e+03
4.9077693429938034e+02 5.7447833427739738e+02 1.8889468928238709e+03
5.0273754934803827e+02 5.4934751013361119e+02 1.8021372580187219e+03
5.1093961140797512e+02 5.4981923537399871e+02 1.8059432609874923e+03
4.4223617756461687e+02 4.7870153177242241e+02 1.5696434470621214e+03
-5.5555054138927380e+02 7.7741882230588760e+02 2.6198946622128310e+03
-4.7002679102921724e+02 6.9122867138413505e+02 2.3338428754984925e+03
-4.4944391023437333e+02 6.9485390608483522e+02 2.3444374441218929e+03
-4.1848485253542503e+02 6.9435931944060451e+02 2.3406789974673834e+03
-3.8636124418731214e+02 6.9985021780803152e+02 2.3568062532282765e+03
-3.5658189046757303e+02 7.0173120574762538e+02 2.3608123113383226e+03
-3.3497721610795668e+02 7.0478032394606589e+02 2.3692498265396971e+03
-2.9179312836524332e+02 8.1013523036775189e+02 2.7029843228185136e+03
2.7265748876690139e+02 7.9147165932543192e+02 2.6247800416376786e+03
3.0099549703729889e+02 7.8964989870943305e+02 2.6277791638793856e+03
2.7536429549297907e+02 6.4376099597378686e+02 2.1260144398429384e+03
2.7798991240877518e+02 6.4358835580240520e+02 2.1253264355999777e+03
3.1361865978861590e+02 6.3404148644850011e+02 2.0917344646938018e+03
3.2361935846296990e+02 6.3057057809153957e+02 2.0795155336218836e+03
3.2729364340430925e+02 6.3002391531032947e+02 2.0775343286979073e+03
3.4230316154930443e+02 6.2410099879461814e+02 2.0569057418328707e+03
3.4825383113582740e+02 6.2302685967164723e+02 2.0531172062514083e+03
3.5186941226880720e+02 6.2249898188651764e+02 2.0512189654416675e+03
3.8866754750261953e+02 6.1136598369928242e+02 2.0123017090079193e+03
4.0404788258942347e+02 6.0596658245631181e+02 1.9935711163511003e+03
4.2099010668510010e+02 5.9984495706213181e+02 1.9723197615681520e+03
4.2433962445075190e+02 5.9924902933792350e+02 1.9702325896264470e+03
4.2897637142787619e+02 5.9703590184636425e+02 1.9626653039124653e+03
4.4410842821469475e+02 5.9401367510498562e+02 1.9520871144499706e+03
4.6079411192316041e+02 5.8875392051865128e+02 1.9338196996850254e+03
4.6792888302662044e+02 5.8412815229629155e+02 1.9179841755387386e+03
4.7320234527708050e+02 5.8177756440733572e+02 1.9098801079175771e+03
4.8316309867808565e+02 5.7801723103540553e+02 1.8968921483934344e+03
4.8177228934538618e+02 5.4489936447670482e+02 1.7833791421268986e+03
4.9481672277976452e+02 5.4711298488241960e+02 1.7906799997004409e+03
5.3912772433648092e+02 5.5669338259920119e+02 1.8239349211913536e+03
-4.7850517728141455e+02 6.9391865999628942e+02 2.3384547443011847e+03
-3.9142598087665624e+02 7.0217889852068186e+02 2.3598106513390853e+03
-3.4516865950878480e+02 7.0508230056498701e+02 2.3659278548156999e+03
-3.1297222667296177e+02 7.0881112317962175e+02 2.3756414792043352e+03
-2.9660605842190500e+02 7.1027539604565436e+02 2.3792107745825660e+03
-2.8084866691401123e+02 7.0945826349352501e+02 2.3751680605123283e+03
-2.7286135997674268e+02 8.0972289369783596e+02 2.6982112071857409e+03
-2.4089790142815417e+02 8.0845927076266139e+02 2.6934193011029492e+03
-2.1350614132182702e-01 7.9716724576129116e+02 2.6450202644167471e+03
3.2831145316836864e+02 8.5051797028930218e+02 2.8236495766597559e+03
3.4556365673594894e+02 8.4006813485795988e+02 2.7913521948470921e+03
2.8434649874072693e+02 6.4417590464519139e+02 2.1223416310778885e+03
3.4610617160320686e+02 6.2521421556143832e+02 2.0560346818255316e+03
3.5637538706877638e+02 6.2275766896534401e+02 2.0473711658976329e+03
3.7757112148344009e+02 6.1719087965813765e+02 2.0279659833735425e+03
3.9255916078130804e+02 6.1270652933267843e+02 2.0123269727136285e+03
4.1622064166374776e+02 6.0323083435162687e+02 1.9795114732251395e+03
4.6499078569791345e+02 5.8774769221347560e+02 1.9260296679092821e+03
4.9479475614462945e+02 5.7737845211601586e+02 1.8903669763061787e+03
5.5970519575143430e+02 6.0250888054938127e+02 1.9730443148357876e+03
-4.9306475642071291e+02 6.9434681791995376e+02 2.3357976415202074e+03
-4.0970354785289265e+02 7.0071355253230661e+02 2.3509741683566990e+03
-3.8442936201676895e+02 7.0501130078970778e+02 2.3636212892079461e+03
-3.7552947178974637e+02 7.0566782916851150e+02 2.3652343751696462e+03
-3.5114488713565220e+02 7.0624061233064663e+02 2.3650126836902728e+03
-3.1635866305640388e+02 7.1104904116254761e+02 2.3781175882629432e+03
-2.9183637379105068e+02 7.1147403494117771e+02 2.3775683155415622e+03
-3.1464525915487883e+02 8.7667309993633353e+02 2.9221858197611878e+03
-2.5526070393445431e+02 8.0619203089607174e+02 2.6809172509892483e+03
2.3016694526931538e+01 8.0598256273806578e+02 2.6699479335499050e+03
1.4166618818200126e+02 7.3786224705189852e+02 2.4292534506208572e+03
2.3978650615644818e+02 7.3594756249030661e+02 2.4263922328948411e+03
2.8732034284333321e+02 7.8482466011109761e+02 2.5905116636334787e+03
2.9556978822055999e+02 6.4347295572551900e+02 2.1150166898592847e+03
3.0873203956090077e+02 6.4028304710843179e+02 2.1037486995904005e+03
3.1171735094330450e+02 6.3829545208896207e+02 2.0969359404267420e+03
3.6852568525925096e+02 6.2069805752960553e+02 2.0355110641770127e+03
3.8094193622365344e+02 6.1777708616997984e+02 2.0253644872883560e+03
4.0009517689393920e+02 6.1020360929150172e+02 1.9991947834071507e+03
4.5718745787762867e+02 5.9301896880982383e+02 1.9397204126994309e+03
4.8053017440226796e+02 5.8157097827354050e+02 1.9006278450110747e+03
4.8369265029625353e+02 5.5914803664084104e+02 1.8238416816068254e+03
-5.1467209945007573e+02 6.5720486703744950e+02 2.2787558446264743e+03
-4.7555619135641030e+02 6.9711498017602491e+02 2.3389579526768885e+03
-4.5463015356743165e+02 7.0032250067047551e+02 2.3477462092920223e+03
-4.0807885514454773e+02 7.0473637037775177e+02 2.3590434174748038e+03
-2.9316461756596198e+02 7.9072892146500703e+02 2.6317260833575865e+03
-2.9148418880524122e+02 8.5195430122528671e+02 2.8268812744444122e+03
9.2151079421087783e+00 8.0252291410326234e+02 2.6531979455281780e+03
2.4866684547426530e+02 7.3069722867185260e+02 2.4017627286824886e+03
2.6503674489542317e+02 6.8326771841413245e+02 2.2397976634086081e+03
3.0707263032107761e+02 6.4360283612744831e+02 2.1104112819126299e+03
3.4241689185505487e+02 6.3060128630323265e+02 2.0652601810962742e+03
3.4559772881428978e+02 6.2928889686297987e+02 2.0607435512193974e+03
3.8676913763607865e+02 6.1639315695408925e+02 2.0159958245114731e+03
4.0726789020931574e+02 6.0917794030643040e+02 1.9910985401796308e+03
4.1901630083039095e+02 6.0620804336363608e+02 1.9807795091114424e+03
4.6105227042042804e+02 5.9293873446195266e+02 1.9351345876851897e+03
4.7824915689832130e+02 5.8434029664293814e+02 1.9058434252049690e+03
4.9384799994860231e+02 5.5193547979683933e+02 1.7951461707214173e+03
5.3355591122820670e+02 5.7769243922563669e+02 1.8814793158683428e+03
5.5535460673196610e+02 5.7316656705438947e+02 1.8668648422303795e+03
-4.8329864305437610e+02 6.9876921026461969e+02 2.3397798364849523e+03
-4.4691810720887918e+02 7.0423186963772253e+02 2.3551000524689480e+03
-3.4877225940046281e+02 7.1076352331301371e+02 2.3696887727631611e+03
-3.1845092295701943e+02 7.1534385657256018e+02 2.3822373095798221e+03
-2.8937354580501551e+02 7.1612490698862450e+02 2.3825734199614612e+03
-2.7393039816763894e+02 7.1614981787692943e+02 2.3815368813318823e+03
-2.2068614010128138e+02 8.2909199474306070e+02 2.7431533821881308e+03
2.4997372839657257e+02 6.7295925871677082e+02 2.2004697299697741e+03
2.7697176800637885e+02 6.4995359868597257e+02 2.1280969600120975e+03
2.8097974404441879e+02 6.4979615248612799e+02 2.1274486375605343e+03
2.8593629438765765e+02 6.4885927020727149e+02 2.1240841536356274e+03
2.9575691298104658e+02 6.4672207365819088e+02 2.1165940533389612e+03
3.2483862980321055e+02 6.3842305020491983e+02 2.0875448331359944e+03
3.2849346395970355e+02 6.3778307944405310e+02 2.0853097542605024e+03
3.3107996365028941e+02 6.3762615142624065e+02 2.0847119049153398e+03
3.3456218980461688e+02 6.3677681931382233e+02 2.0817040788797131e+03
3.5171789218699763e+02 6.2987117601653688e+02 2.0580006558224827e+03
3.9952457423792578e+02 6.1566433916541439e+02 2.0088208179657342e+03
4.1102456632126996e+02 6.1043331426247835e+02 1.9908485944400595e+03
4.1370033134686878e+02 6.0888840651435964e+02 1.9855869652571505e+03
4.2439836630890960e+02 6.0621888981070447e+02 1.9763717400152213e+03
4.5390507433604472e+02 5.9759729160277118e+02 1.9466926285134302e+03
4.7393467384707907e+02 5.5398497384912559e+02 1.7988927530166138e+03
5.1892899919766978e+02 5.7007262659899300e+02 1.8529371479630092e+03
-5.5341909100980342e+02 7.7816863709098675e+02 2.5937725426409625e+03
-4.2992349366565293e+02 7.0823394070750930e+02 2.3619534742774199e+03
-4.1405801390222126e+02 7.1014848013826236e+02 2.3669513946911939e+03
-3.9370057201153895e+02 7.1244939353158293e+02 2.3734508805147798e+03
-3.4629523553020420e+02 7.1356219547681474e+02 2.3736697438806004e+03
-3.2895905605280041e+02 7.1616748956268407e+02 2.3807122396738623e+03
-3.0977088961212343e+02 7.1829301937384264e+02 2.3859671735870629e+03
-2.7713193690931911e+02 7.1798215800148557e+02 2.3825799016602659e+03
-2.4524327402490047e+02 8.1275627890809733e+02 2.6849054173463319e+03
2.1418274623730466e+02 7.4622518828402781e+02 2.4424812970745143e+03
2.4627588930271961e+02 7.2816402069844219e+02 2.3825027194247718e+03
2.4909025235712465e+02 6.6551716868741971e+02 2.1707464520741669e+03
2.6377170603148340e+02 6.5530732886737519e+02 2.1419281579058802e+03
2.7455109574534498e+02 6.5202512425016880e+02 2.1304763962832553e+03
3.4036263284720133e+02 6.3662298075598574e+02 2.0764994756522383e+03
3.8581932351057213e+02 6.1953810150642585e+02 2.0177515451849160e+03
3.9509074155694975e+02 6.1803974602743824e+02 2.0124870065872062e+03
4.0273245843529475e+02 6.1435282683391347e+02 1.9998906756191188e+03
4.2237100039750135e+02 6.0818364368990967e+02 1.9786806277756511e+03
4.4285172724964167e+02 6.0211815482801467e+02 1.9578880728343429e+03
4.7750022541723877e+02 5.8882008360093857e+02 1.9125417785287993e+03
4.8131676968743392e+02 5.8625306464680568e+02 1.9038406285153396e+03
4.8653814225662677e+02 5.8531388793247538e+02 1.9005861658797496e+03
4.6644322957768969e+02 5.3852137862393181e+02 1.7434395056182752e+03
4.1877785895771302e+02 4.6110763562612431e+02 1.4899497545417096e+03
4.2560362043478472e+02 4.5205244208268823e+02 1.4599893953718372e+03
-4.9271391889505009e+02 7.0210422166989508e+02 2.3414103425637340e+03
-4.8273547287465499e+02 7.0321252761355947e+02 2.3444357322585815e+03
-4.6605041605919746e+02 7.0587852654002972e+02 2.3519182789597057e+03
-3.6306167155894326e+02 7.1462291799820628e+02 2.3732788642538976e+03
-2.7696209286014641e+02 8.2041973448184092e+02 2.7049228681064433e+03
1.6870842022596705e+01 8.0037760229988214e+02 2.6269917189707912e+03
2.6216722281374666e+02 6.8110792974410879e+02 2.2179318591438619e+03
2.9864545349341347e+02 6.4991616168906603e+02 2.1179269147689956e+03
3.4581505842821207e+02 6.3597827776096653e+02 2.0696347397342311e+03
3.5438859329687580e+02 6.3268376867405277e+02 2.0583399117437584e+03
3.7498035573999630e+02 6.2620950853712566e+02 2.0358692136509628e+03
3.9193634558675785e+02 6.2047487225350073e+02 2.0162759119567129e+03
4.1565231626155150e+02 6.1243047865934955e+02 1.9887356677984176e+03
4.4046529105021114e+02 6.0514041490604654e+02 1.9637803055441084e+03
4.6870377458176324e+02 5.9418714752879305e+02 1.9264536169208643e+03
4.9081138530418667e+02 5.8589678972048841e+02 1.8983254714216007e+03
4.1902838552789069e+02 4.8681519053693057e+02 1.5677065280936015e+03
5.2632052808666731e+02 5.7159532491255356e+02 1.8498530399676231e+03
4.1594625067730118e+02 4.6474207932215580e+02 1.4982350012300640e+03
2.6890710365490668e+02 3.0130661898734706e+02 9.6761435994305123e+02
-4.7601036362538133e+02 7.0615229152788777e+02 2.3486367720559033e+03
-4.6068048272682285e+02 7.0863184065326118e+02 2.3556050885692148e+03
-4.2090475306488463e+02 7.1435486126950661e+02 2.3710474099691419e+03
-4.1070102528478964e+02 7.1546869257002732e+02 2.3741049631946025e+03
-3.8064686920476532e+02 7.1719680608450210e+02 2.3782796712584245e+03
-3.6674080371771277e+02 7.1730108484856623e+02 2.3772940436906656e+03
-3.2860381559725442e+02 7.2188684239331951e+02 2.3892980399672920e+03
-3.0437635652333563e+02 7.2332284178543887e+02 2.3920888941201483e+03
-2.5827379198974364e+02 7.2458804954165817e+02 2.3930529165557209e+03
-2.8291104287552122e+02 9.0161004078412623e+02 2.9757667994616877e+03
-2.4604935556385703e+02 8.4618528545933577e+02 2.7801255677065892e+03
-5.7166819884764362e+00 8.0162562211280203e+02 2.6248845712471707e+03
2.6282433683706120e+01 8.1161731723827756e+02 2.6595885079662771e+03
2.5425110861167815e+02 6.7488232822259181e+02 2.1921836736074838e+03
2.7886628860262152e+02 6.5534040685737727e+02 2.1321060182030737e+03
2.9142020126121793e+02 6.5319442081416071e+02 2.1244984015632981e+03
3.1265857478642022e+02 6.4733065525074596e+02 2.1040441417084912e+03
3.3052550720169984e+02 6.4315796432176580e+02 2.0895752684280878e+03
3.3780748785635228e+02 6.4189262669955417e+02 2.0851279710719009e+03
3.4104489760749215e+02 6.4053505398487528e+02 2.0805189427535083e+03
3.4942833451630310e+02 6.3672077896548547e+02 2.0675321291011965e+03
3.5918036088014816e+02 6.3335595358262822e+02 2.0559249685495324e+03
4.0024378370441997e+02 6.2076741157661729e+02 2.0126639233271137e+03
4.4925698274851641e+02 6.0339601634680059e+02 1.9534487669019388e+03
5.1984381702439316e+02 5.7463796980880909e+02 1.8560940658893749e+03
4.2936576122238620e+02 4.7532383717521196e+02 1.5301105790424913e+03
4.9669103884533922e+02 5.2708670278870784e+02 1.6994255698254383e+03
-5.9179716043239853e+02 8.2380520562576351e+02 2.7772314284133186e+03
-5.2341714128907415e+02 7.6248879921580954e+02 2.5470027500668116e+03
-4.6408628382007817e+02 7.1066012267506744e+02 2.3574350574849764e+03
-4.0417430791281629e+02 7.1919213593589438e+02 2.3809552437399548e+03
-3.8771741796510014e+02 7.2036165887951404e+02 2.3838565107809800e+03
-2.7337120609437824e+02 7.2501732674425682e+02 2.3903033287819198e+03
-2.6662799066449196e+02 8.1989159748137104e+02 2.6924456815275566e+03
-1.7293748259363326e+02 8.5906529249800133e+02 2.8136413994148465e+03
2.1238092483531563e+01 8.1436542244155362e+02 2.6632652851373969e+03
2.1859971802007857e+02 7.3290606248553092e+02 2.3815837823449124e+03
2.3325684550992850e+02 7.4298458357431309e+02 2.4138270618243896e+03
2.6604900255298338e+02 6.8996740645441400e+02 2.2376780324831602e+03
2.8160000241783973e+02 6.5680946319322459e+02 2.1322728155781729e+03
2.9646913294624858e+02 6.5384973310316377e+02 2.1218805874072041e+03
3.1742060471218565e+02 6.4764291533078051e+02 2.1003073209447025e+03
3.2322167698254776e+02 6.4594161396173627e+02 2.0944625132952197e+03
3.6543224145905276e+02 6.3416302020240141e+02 2.0539919683392955e+03
3.8150439848509774e+02 6.2887365102496358e+02 2.0357765255407201e+03
3.8446554656601995e+02 6.2748237722004819e+02 2.0310328943831719e+03
3.9039993946777298e+02 6.2478644851853994e+02 2.0218527146146569e+03
3.9268205175369690e+02 6.2430745276953019e+02 2.0202265941782975e+03
4.0430903506710479e+02 6.2062237664006000e+02 2.0076731672129354e+03
4.0769199403576386e+02 6.1996067915977312e+02 2.0053808168040737e+03
4.1339832467967989e+02 6.1720152543434574e+02 1.9960522184474967e+03
4.2172287295999354e+02 6.1460383487660624e+02 1.9872297565475999e+03
4.2668689258570618e+02 6.1271641143176396e+02 1.9808537884951406e+03
4.5503439635114893e+02 6.0418245217470201e+02 1.9516637732796762e+03
4.7910595385936779e+02 5.9307314957033213e+02 1.9141976395388010e+03
4.8496303348676213e+02 5.9008018188831886e+02 1.9040801396034026e+03
4.9407923861531884e+02 5.8800267993380817e+02 1.8970281295390944e+03
5.1091165599445145e+02 5.3636959125885323e+02 1.7261526943033266e+03
3.4485617925688308e+02 3.7310758537419377e+02 1.1948123486356694e+03
-4.5320777732441627e+02 7.1452151177795622e+02 2.3641543147329548e+03
-4.0725460517813963e+02 7.2068356798996513e+02 2.3809572598083951e+03
-3.5443746884832171e+02 7.2375270984459814e+02 2.3871502459095764e+03
-3.3534098871300404e+02 7.2611666520101949e+02 2.3934779967364070e+03
-3.0675398536860763e+02 7.2841513991383920e+02 2.3987898049798137e+03
-2.2949040763866597e+02 8.3744439954357051e+02 2.7412482692153676e+03
2.5811343483425804e+02 7.3872562281207013e+02 2.3961060300959630e+03
2.8395505986343227e+02 6.5747854338698914e+02 2.1297557317015303e+03
3.2840810283418460e+02 6.4702687587120636e+02 2.0933815072632151e+03
3.4151977072769080e+02 6.4416464482282333e+02 2.0835109487247005e+03
3.4596283868156110e+02 6.4262417445668950e+02 2.0782808498008662e+03
3.7323198577239236e+02 6.3362461932330314e+02 2.0473477434365730e+03
3.8675702619141680e+02 6.2651426540023022e+02 2.0232764376303062e+03
3.9965792098787955e+02 6.2450053522448195e+02 2.0163203541968123e+03
4.0226796988525649e+02 6.2273914330268940e+02 2.0103820306067253e+03
4.1644549862643305e+02 6.1744640428876414e+02 1.9924645373336709e+03
4.3427372860546495e+02 6.1233503755927393e+02 1.9751263828816775e+03
4.6925181138091489e+02 5.9870537875491573e+02 1.9289090567060641e+03
5.0337556216890925e+02 5.8496281771027088e+02 1.8826052755290600e+03
4.9348389745278035e+02 5.3223819880099927e+02 1.7100500155283607e+03
5.2483801138996978e+02 5.5837609579024161e+02 1.7946548311104916e+03
-5.2623338227114778e+02 7.6771334427071508e+02 2.5525283031293393e+03
-4.7183613648873916e+02 7.1375063586670251e+02 2.3580819432918470e+03
-4.2093244672451874e+02 7.2169635027818128e+02 2.3799930511142820e+03
-4.0030799274527169e+02 7.2372597572920802e+02 2.3854878719893227e+03
-3.9029564757398060e+02 7.2536193808137955e+02 2.3902224605218653e+03
-3.4295377195134529e+02 7.2732232487974670e+02 2.3930361381052189e+03
-3.2671713470810261e+02 7.2928764899968769e+02 2.3980112786738846e+03
-2.9401166668131674e+02 8.0477661766760957e+02 2.6376640020578011e+03
-2.3455347529449418e+02 8.3804326404832830e+02 2.7372365550101536e+03
5.0334180260769434e+00 8.0019892259655683e+02 2.6045305670326093e+03
2.6265209958040379e+02 7.2956654683999238e+02 2.3600045661570962e+03
2.8928235569290052e+02 6.5868219696857147e+02 2.1289426656884266e+03
2.9168404388265014e+02 6.5799987493781828e+02 2.1266011267743156e+03
3.0762010062950878e+02 6.5479747900090024e+02 2.1153416858311457e+03
3.1089510662958838e+02 6.5335211170827586e+02 2.1103874344445667e+03
3.1756975984371559e+02 6.5074260476875725e+02 2.1014586325504843e+03
3.2127416913833628e+02 6.5014946964369972e+02 2.0993719697804813e+03
3.5928509232696200e+02 6.3978205812858243e+02 2.0638947360978354e+03
4.1283602657981339e+02 6.2090283114640931e+02 1.9996734951796382e+03
4.6516264610360872e+02 6.0249276348914850e+02 1.9373705113469186e+03
5.5328121107569734e+02 5.8087349182155322e+02 1.8643204571485121e+03
-5.7691959523469382e+02 8.2551248051938910e+02 2.7256069760392206e+03
-3.6918719842899986e+02 7.2832964711381123e+02 2.3929580179703376e+03
-2.7319492870082763e+02 7.3330271501063191e+02 2.4019210236214699e+03
-2.8403994798650615e+02 9.1233337748830377e+02 2.9840318903900234e+03
2.1631732435784704e+02 7.3574999396173257e+02 2.3755094441940037e+03
2.2961145706979002e+02 7.2681541644035292e+02 2.3453824162246533e+03
2.6463202295210766e+02 6.9115832568310987e+02 2.2271433026087911e+03
3.3238473150064567e+02 6.4970451057977505e+02 2.0930873299266491e+03
3.5737068299013549e+02 6.4233133971887366e+02 2.0679369565908187e+03
3.7516894038435618e+02 6.3530106377926040e+02 2.0439777557956222e+03
4.2026070200617795e+02 6.2008364813716230e+02 1.9925038723467424e+03
4.4647303508613692e+02 6.1133754919261878e+02 1.9629474250469607e+03
4.5343452729327436e+02 6.1073872128125481e+02 1.9607653125915267e+03
4.5641538497641812e+02 6.0980068033439591e+02 1.9575817298004147e+03
4.6975695987329271e+02 6.0336981925051032e+02 1.9359957286266379e+03
4.8668137145243918e+02 5.9444861268285990e+02 1.9061630488538231e+03
4.9159724486914411e+02 5.9311333912602129e+02 1.9016680332197059e+03
5.0388844938501450e+02 5.7660081066224006e+02 1.8455732526152644e+03
5.2057956234906430e+02 5.8034694541382191e+02 1.8589377803147268e+03
5.2567281403260563e+02 5.7827085469405677e+02 1.8519834577408640e+03
-4.7820933259653305e+02 7.1708286395264736e+02 2.3595811504290000e+03
-4.5210704899596811e+02 7.2231086320884879e+02 2.3744888023522340e+03
-3.8118796417205903e+02 7.3194693512348272e+02 2.4007872262529681e+03
-3.4688928937693686e+02 7.3215100009540424e+02 2.3987946371489634e+03
-3.1493507878117225e+02 7.3398335533896932e+02 2.4021695812208245e+03
-2.8793166147974966e+02 8.1945862215591592e+02 2.6723619255136855e+03
3.3749219648358064e+01 8.0963394096275078e+02 2.6231993988788004e+03
2.1102076697784213e+02 7.3973688301058860e+02 2.3836892894958314e+03
2.7118579407651845e+02 7.3984258949335162e+02 2.3832248269980109e+03
2.7940496833685319e+02 6.6372383830646618e+02 2.1367323250113318e+03
2.8573023742255469e+02 6.6266244169114589e+02 2.1330106813011184e+03
2.9452074545177481e+02 6.6106197367684354e+02 2.1274598935699855e+03
3.1252458670798688e+02 6.5668997224432462e+02 2.1122637722635077e+03
3.3504767667791924e+02 6.5108086221685016e+02 2.0930572556948164e+03
3.4336421060996526e+02 6.4919255562768979e+02 2.0866026956802480e+03
3.5333128105803144e+02 6.4577205887267360e+02 2.0750034269903540e+03
3.6819515244053679e+02 6.4203380155860486e+02 2.0621735258367185e+03
3.8582223604019703e+02 6.3302670489896036e+02 2.0317631140949070e+03
4.3200968627597081e+02 6.1832179979394709e+02 1.9821646551625283e+03
4.3652097355746787e+02 6.1760518070210981e+02 1.9797017882650828e+03
4.4515502790414251e+02 6.1417936550494858e+02 1.9681167476269434e+03
4.9791456780352860e+02 5.9319458638539857e+02 1.8977947504518488e+03
5.0652422705682636e+02 5.8565293681281730e+02 1.8713692216354057e+03
5.1583644596036629e+02 5.6469387057434574e+02 1.8040914100001701e+03
5.6920537888660112e+02 6.0876095530949158e+02 1.9479021082639999e+03
3.4807438213474637e+02 3.8148935537444049e+02 1.2118431882835266e+03
-5.7736475640308788e+02 8.2988246969550380e+02 2.7273497683469463e+03
-4.8674802578922322e+02 7.1983054909573400e+02 2.3640256118976117e+03
-4.7527384507682103e+02 7.2123962967844216e+02 2.3677005783000814e+03
-4.6543914093937821e+02 7.2281751105457363e+02 2.3720934507597926e+03
-4.5684417356401917e+02 7.2396863676855662e+02 2.3751851113052503e+03
-4.1380386407426676e+02 7.3021654727906218e+02 2.3922120235953957e+03
-3.9613527347565429e+02 7.3217742025860593e+02 2.3976068791029243e+03
-3.8617046758017983e+02 7.3405159792385302e+02 2.4030700771930196e+03
-3.4266076529498645e+02 7.3469236038042277e+02 2.4016724405831073e+03
-3.2413276349364867e+02 7.3516442511626497e+02 2.4016429556426265e+03
-2.9398592467846458e+02 7.3779357922283987e+02 2.4079786503509731e+03
-2.6626560687338031e+02 7.3880930526779753e+02 2.4091429912601220e+03
-3.0155268919695027e+02 9.1054182797087969e+02 2.9660980731462796e+03
-2.3383076652163035e+02 8.4012331420838655e+02 2.7258734782753227e+03
-1.4326497348954673e+01 8.0938191174066571e+02 2.6166297278547049e+03
2.7785812316802878e+02 7.8055682238995007e+02 2.5127090010749002e+03
3.2421205427754546e+02 6.5473496904204001e+02 2.1008889914437850e+03
3.3175069468043745e+02 6.5374182918665895e+02 2.0974342736403332e+03
3.5164673046647550e+02 6.4874798883748269e+02 2.0804260107330733e+03
3.9839956447156595e+02 6.3185359023892579e+02 2.0232054661721731e+03
4.0744057020706708e+02 6.2815945775193984e+02 2.0107883064842174e+03
4.6700348551644538e+02 6.0712641556738663e+02 1.9400843550487873e+03
4.7966435548497680e+02 6.0153913017175330e+02 1.9214902348707531e+03
5.2794196056727230e+02 5.8616213277563213e+02 1.8689127033885188e+03
5.6280476076654043e+02 6.2101385260376458e+02 1.9844194122346191e+03
5.1967254016834136e+02 5.7212875537779837e+02 1.8245851149079335e+03
5.4536625242281980e+02 5.8971784932110052e+02 1.8807890646616286e+03
-4.6304533959633977e+02 7.2548608313892134e+02 2.3755638280105700e+03
-4.4205482471773610e+02 7.2931103410714866e+02 2.3865293802238330e+03
-4.2203335727232451e+02 7.3249233175616564e+02 2.3951180733914466e+03
-3.4932398930019735e+02 7.3712262876728812e+02 2.4050186629586315e+03
-3.0143309724560544e+02 9.4796290942699648e+02 3.0803808233722975e+03
2.5743591210521731e+02 7.8108162582929526e+02 2.5087965752595533e+03
2.8908143660341938e+02 7.8824424265295511e+02 2.5331946794178061e+03
2.7861085786598159e+02 6.6782210948332499e+02 2.1410550291249515e+03
2.8969624579985503e+02 6.6525173018009616e+02 2.1322243438567643e+03
2.9710959396520070e+02 6.6368589101652799e+02 2.1268119617598045e+03
3.2096717189494620e+02 6.5761532495373137e+02 2.1059501699029665e+03
3.2811036927178321e+02 6.5588007672683784e+02 2.1000454197706640e+03
3.4138218109732151e+02 6.5315545553669563e+02 2.0907479822491709e+03
3.6615040192237819e+02 6.4572678004635361e+02 2.0655202178643431e+03
3.7334798918722652e+02 6.4265141599192941e+02 2.0550850675491029e+03
4.0156054927292928e+02 6.3215917511934924e+02 2.0197866524236274e+03
4.5862537717040129e+02 6.1331294772875412e+02 1.9564841055582945e+03
4.7003627894986738e+02 6.0763343607596289e+02 1.9375020333742170e+03
4.7775918615746281e+02 6.0349576276538482e+02 1.9238116036846625e+03
4.9114643782829273e+02 5.9775647760904303e+02 1.9047138494328467e+03
5.1748630112785793e+02 5.8580744938171233e+02 1.8649751113647476e+03
5.2302552343476577e+02 5.8410959342782871e+02 1.8593129132782428e+03
-4.0124103741084906e+02 7.3604674600093972e+02 2.4003960628945533e+03
-3.8257288001569822e+02 7.3931734525997285e+02 2.4096029857168173e+03
-2.8491477745791224e+02 7.4168640494173076e+02 2.4096594505526259e+03
-2.6390866429121439e+02 7.4412589834927121e+02 2.4160405558883376e+03
-2.8620010203851365e+02 9.4654822798320720e+02 3.0701246001008321e+03
-2.3906898610934343e+02 8.5766271064145883e+02 2.7731177526472079e+03
1.4464698167352395e+02 7.6925559021842184e+02 2.4652521015963002e+03
2.8367428014320882e+02 6.6845084330498582e+02 2.1383102298858225e+03
3.1204472940545929e+02 6.6255117155592836e+02 2.1179791266403363e+03
3.5532448972326586e+02 6.5097626152886141e+02 2.0787337396515773e+03
3.5973928716430140e+02 6.4950627230003295e+02 2.0737561108030104e+03
3.7182548974542306e+02 6.4567605046772758e+02 2.0607303340967005e+03
3.9867927705719984e+02 6.3495414548740177e+02 2.0247053363970974e+03
4.0396230061584197e+02 6.3326720531109345e+02 2.0190119012508683e+03
4.1407936174424088e+02 6.3112652997624048e+02 2.0117665423483138e+03
4.4475055128618590e+02 6.1920671128741549e+02 1.9719784009668494e+03
5.0025679655275854e+02 5.9690263657545040e+02 1.8977156333566350e+03
5.0433050882015124e+02 5.9477459080172389e+02 1.8906360259615292e+03
5.1832475820900038e+02 6.0091678928103386e+02 1.9092905664335069e+03
5.1076116488493159e+02 5.9128569802681670e+02 1.8778242043265591e+03
5.2988361301886027e+02 5.7144103595567924e+02 1.8143225046577168e+03
-5.0078560246352527e+02 7.2681223831976570e+02 2.3726034226764118e+03
-4.4270677681838430e+02 7.3349642574452810e+02 2.3901301492064999e+03
-4.2591601968394775e+02 7.3692279357152472e+02 2.3995837303407852e+03
-4.1376003510235006e+02 7.3758575496341894e+02 2.4010119995310611e+03
-3.7954090525324051e+02 7.4108446682843578e+02 2.4100161248773425e+03
-3.2682167680788683e+02 7.4241914138125503e+02 2.4101218362268000e+03
-2.9972572162364293e+02 7.4512147607551606e+02 2.4170105485000827e+03
-2.7610895201441571e+02 7.4479760944093721e+02 2.4139936013380993e+03
-2.9944637188206792e+02 9.4572907421216951e+02 3.0602461320249558e+03
-7.1761502232296808e+00 8.2415839022633304e+02 2.6487238824090805e+03
2.3430465393527950e+01 8.1592901729335495e+02 2.6214247971328136e+03
2.7855957550785507e+02 8.0429247831178304e+02 2.5743762102647042e+03
2.4623513547234583e+02 6.9540713885410310e+02 2.2176251720772925e+03
3.3969627876626555e+02 6.5765395335594019e+02 2.0966172398492454e+03
3.6326174826879333e+02 6.5013321243884809e+02 2.0712671458817013e+03
3.9383972470045848e+02 6.3681254811908968e+02 2.0265678989796086e+03
4.3321356444801876e+02 6.2531103565400178e+02 1.9880180117633074e+03
4.7623630834077420e+02 6.0722087653526137e+02 1.9277890220786180e+03
5.1674118871658982e+02 5.8999048226906029e+02 1.8707213090230903e+03
5.5133169458910970e+02 5.8516253152272805e+02 1.8547108957207731e+03
-4.9135108983101543e+02 7.3053542158370033e+02 2.3788714733463244e+03
-4.6999553359747017e+02 7.3125790307556633e+02 2.3797211641685612e+03
-4.0502568230962004e+02 7.4036315882429108e+02 2.4045048181585144e+03
-3.7195611571798901e+02 7.4320469283182251e+02 2.4109524286924711e+03
-3.6123795172019970e+02 7.4377040775809417e+02 2.4119726706150873e+03
-3.0303567764148028e+02 7.4713575837810799e+02 2.4187096358831586e+03
-2.3720166487152952e+02 8.6831901844380491e+02 2.7966221283645173e+03
2.3041944372906701e+02 7.4601380137023409e+02 2.3784502318770478e+03
2.4956475352793265e+02 6.9199610895051592e+02 2.2014029754755979e+03
2.6732160978771452e+02 6.7757138372574002e+02 2.1596945062392133e+03
2.9287190378505898e+02 6.7045416659891589e+02 2.1354792688941934e+03
3.0027209011944916e+02 6.6886660223115723e+02 2.1300240626939085e+03
3.0422426954423383e+02 6.6861017653293675e+02 2.1290655450337431e+03
3.0785057156889627e+02 6.6775312213564348e+02 2.1261191344572071e+03
3.3007308259651955e+02 6.6113061771102775e+02 2.1037609468902983e+03
3.3748138481970983e+02 6.5991288171760630e+02 2.0995768239830572e+03
3.9761071767268749e+02 6.3801726146258295e+02 2.0260785010437573e+03
4.0672969404354421e+02 6.3621902830402291e+02 2.0199889106693543e+03
4.0904703832314738e+02 6.3584071924537864e+02 2.0186881554806480e+03
4.4810745902098319e+02 6.2124275350253254e+02 1.9701672131431908e+03
4.5487739228323858e+02 6.2038147079339308e+02 1.9671487930927685e+03
4.6346697975317954e+02 6.1553800382875397e+02 1.9511115549270296e+03
4.7447761101166833e+02 6.1086825420809146e+02 1.9356054097390897e+03
4.8912330709618936e+02 6.0334663654698886e+02 1.9108587461953973e+03
4.9091816275890466e+02 6.0265558839917617e+02 1.9085447621964331e+03
4.8952848395214130e+02 5.8459072086620552e+02 1.8486888893391231e+03
5.1600248127828445e+02 5.9942161085296573e+02 1.8963229553346121e+03
5.2124792648658752e+02 5.8969567970478522e+02 1.8656967620607525e+03
5.2542246463129277e+02 5.8779467514623445e+02 1.8594521599297811e+03
5.2361305345261201e+02 5.7059954359971630e+02 1.8046368935653231e+03
5.4278841939133235e+02 5.8046029300916371e+02 1.8356703551686614e+03
-4.9947010938806216e+02 7.3255908782150880e+02 2.3809214863112174e+03
-4.5313857976619704e+02 7.3576921879863858e+02 2.3881609042159562e+03
-3.9790428365697863e+02 7.4327757305276748e+02 2.4084776174449903e+03
-3.3866017513767889e+02 7.4747268771981032e+02 2.4172638850304156e+03
-3.2445553316412395e+02 7.4731527238690683e+02 2.4154324435804156e+03
-2.9598922178260983e+02 7.5073875600060319e+02 2.4246652452177359e+03
-2.9673000357873315e+02 8.2556728362757417e+02 2.6590640965554317e+03
-2.8129702866783816e+02 8.4688369780122150e+02 2.7277275241136795e+03
-2.9216152406973151e+02 9.5838260233198253e+02 3.0878320263320102e+03
-2.2019341295061321e+02 8.5884808103129126e+02 2.7582146848254083e+03
1.4797859603235670e+01 8.1801585001395290e+02 2.6170680668780883e+03
2.7971672589057562e+02 8.0138991070955888e+02 2.5525775916113703e+03
3.1801496895949623e+02 6.6530735944303092e+02 2.1131978803881620e+03
3.3395417032753664e+02 6.6222222972428017e+02 2.1027470250591487e+03
3.6656045944157904e+02 6.5189164714667697e+02 2.0680205454686316e+03
3.7803018644359059e+02 6.4716375760044650e+02 2.0521922705365264e+03
3.8292144321056924e+02 6.4466816433329518e+02 2.0438660264509849e+03
4.0119183278118936e+02 6.3894050462798259e+02 2.0246785535700942e+03
4.1517598628474832e+02 6.3677410658583426e+02 2.0172786756632638e+03
4.3227451257502315e+02 6.3019479179993482e+02 1.9954645981725032e+03
4.6535528457767998e+02 6.1616672457093534e+02 1.9489151356275495e+03
4.6927110192693789e+02 6.1492034209395706e+02 1.9447590021398935e+03
5.0146793101553163e+02 6.0070290991213199e+02 1.8979656450054390e+03
-5.8869556456881764e+02 8.5700773221397912e+02 2.7809705274884327e+03
-4.8951144722714946e+02 7.3553660118921528e+02 2.3849985866563156e+03
-4.3882457302925405e+02 7.4219145802790229e+02 2.4026106608349696e+03
-3.9402625580355789e+02 7.4643464370714742e+02 2.4133770733097181e+03
-3.6807035337296020e+02 7.4802995558903285e+02 2.4160300261774933e+03
-3.0358633424106506e+02 7.5164280519484828e+02 2.4230906510973814e+03
-2.9149729410477482e+02 8.3227600479571720e+02 2.6753644998541622e+03
-7.2118015892108058e+00 8.3127559718623309e+02 2.6549334232261604e+03
2.8717194206890436e+01 8.2385850085675997e+02 2.6305316827957354e+03
2.4841803215385283e+02 7.5762414472822513e+02 2.4069588084280076e+03
2.6543618870234900e+02 7.2232414165427292e+02 2.2907395826573165e+03
2.6666017114875888e+02 6.8211723175148154e+02 2.1653394959360171e+03
2.7281861288948721e+02 6.8044438619184007e+02 2.1596399359186798e+03
2.9594581368835060e+02 6.7404150345728112e+02 2.1379546611406768e+03
3.1299845181857421e+02 6.7004085009170808e+02 2.1243413250118833e+03
3.2797179493832982e+02 6.6505900967709442e+02 2.1076397670598908e+03
3.4391117226690244e+02 6.6219166861899055e+02 2.0979040302486765e+03
3.4622377183231845e+02 6.6155271158527808e+02 2.0957431729397381e+03
3.8624177656155751e+02 6.4316698340414860e+02 2.0344870658827290e+03
4.7407065447088075e+02 6.1447985687955565e+02 1.9391251190405615e+03
4.7976636583421850e+02 6.1084432118985342e+02 1.9272364202368844e+03
4.8897277570006503e+02 6.0576181882820799e+02 1.9105818527670506e+03
5.0339295246301731e+02 6.0142211350137507e+02 1.8962251295439116e+03
5.1214791791028176e+02 5.7532338272138418e+02 1.8121340686823557e+03
3.0371307871133223e+02 3.4463099144228647e+02 1.0783968794615746e+03
-4.9879976240303341e+02 7.3931948105350102e+02 2.3924564536392568e+03
-4.0439620274473043e+02 7.4679491519180033e+02 2.4102150259815503e+03
-3.7607744862591591e+02 7.4986349459188546e+02 2.4176570933167700e+03
-3.1158425744400239e+02 7.5352388605102271e+02 2.4245482863935258e+03
-2.7900825113448428e+02 7.5466894620043786e+02 2.4256107471598575e+03
-2.9433213638782377e+02 9.6305386371886505e+02 3.0902066903778400e+03
-2.3366210460429721e+02 8.5165055121401656e+02 2.7227400354126116e+03
-3.9541421880700307e+00 8.3051897776517933e+02 2.6464877024252119e+03
2.8527005536389390e+02 8.0403265990343652e+02 2.5510980914312686e+03
3.2439560525640394e+02 6.6738136041921996e+02 2.1108071592642546e+03
3.6030353840845351e+02 6.5737310977158461e+02 2.0772818135363618e+03
3.7262924410385716e+02 6.5380881283100007e+02 2.0652700231189979e+03
3.8048977683388540e+02 6.4968676655475008e+02 2.0515827258162308e+03
3.9588285596002351e+02 6.4340711919762271e+02 2.0306991099106963e+03
4.1897416528264898e+02 6.3751568367467667e+02 2.0110553791494813e+03
4.3166999021323267e+02 6.3373901230738386e+02 1.9985414386054397e+03
4.4293897014062100e+02 6.2838145528930363e+02 1.9809032290933976e+03
5.1442295471393049e+02 5.9756986036499393e+02 1.8795405979221227e+03
5.1722298317087632e+02 5.7397581132008918e+02 1.8035181995800565e+03
5.1774465748697855e+02 5.7233753641431770e+02 1.7984035784725149e+03
-4.6359574663629905e+02 7.4215886504228536e+02 2.3943190596529826e+03
-4.1235784473279369e+02 7.4852784356053883e+02 2.4112361834709259e+03
-3.5791320234535453e+02 7.5297765660303219e+02 2.4212200114354091e+03
-3.0711768016434081e+02 7.5576271955567984e+02 2.4264539399820592e+03
-2.6665950981036139e+02 8.4511631845800423e+02 2.7045444495791808e+03
-1.9498701089848009e+01 8.3058390868668118e+02 2.6411468851198078e+03
2.8225338260977213e+02 8.1383645533236177e+02 2.5780091549595995e+03
2.8635082429543547e+02 6.7993170940793595e+02 2.1482528868307563e+03
2.9023909864561472e+02 6.7947087326812107e+02 2.1466100788728395e+03
3.1773769852349534e+02 6.7161890302079996e+02 2.1202531500761011e+03
3.5288800210772564e+02 6.6198355724191697e+02 2.0880540414776560e+03
4.0187301205600551e+02 6.4396361666007647e+02 2.0281056387795384e+03
4.5240569056132182e+02 6.2725173631804387e+02 1.9728309773285182e+03
4.7780252516190308e+02 6.1552305081127986e+02 1.9342635543289023e+03
4.8413033994674618e+02 6.1421209705479248e+02 1.9299289547038134e+03
5.2565537224749767e+02 5.9415732752062570e+02 1.8643781447978056e+03
-5.0328386433720789e+02 7.4443104494712679e+02 2.3989829500400933e+03
-4.7552750509289638e+02 7.4277720493291963e+02 2.3921862842046894e+03
-4.5157204932131572e+02 7.4455532483165985e+02 2.3963313923814576e+03
-4.3955865820797140e+02 7.4812949778681559e+02 2.4066460129138027e+03
-4.2323256827098044e+02 7.4984214775103408e+02 2.4110759127045953e+03
-3.5513896055785000e+02 7.5534982372272771e+02 2.4235614875189685e+03
-3.2895554337739310e+02 7.5673413725642740e+02 2.4258543245727137e+03
-3.0151074104871685e+02 7.5908834312597469e+02 2.4316755370299306e+03
-2.7222091620239462e+02 7.6087232082097580e+02 2.4348808215460272e+03
-2.3703713877439071e+02 7.9216515872598302e+02 2.5134864786503708e+03
-2.1839020103424141e+02 8.4998119635162948e+02 2.7049886703709276e+03
2.0939256334151835e+01 8.1798221478138430e+02 2.5941423502421276e+03
2.3042558485972131e+02 7.5293611584485336e+02 2.3760790870486030e+03
2.3548495189873793e+02 7.4657373394857700e+02 2.3551234046750387e+03
2.5808678207131834e+02 6.9626305366187353e+02 2.1917863697429088e+03
2.6197470395007895e+02 6.9861537544154237e+02 2.1993803678684426e+03
2.6824851885818703e+02 6.8697217754386770e+02 2.1672273877604653e+03
2.8393690894097068e+02 6.8207538787725457e+02 2.1507138410900884e+03
3.1607289315960747e+02 6.7511335282040943e+02 2.1271302614427168e+03
3.2017973752693109e+02 6.7249735009426217e+02 2.1185446959990272e+03
3.2380534633986548e+02 6.7172048776927716e+02 2.1158881513485671e+03
3.3705055567255789e+02 6.6864018491886225e+02 2.1056053668735094e+03
3.9781516898065638e+02 6.4706549818945109e+02 2.0339166550200916e+03
4.3126574478598980e+02 6.3764649519138948e+02 2.0027151658814669e+03
4.3832121671408538e+02 6.3501106939068416e+02 1.9940814538861441e+03
4.6066852857488323e+02 6.2477674393343943e+02 1.9604496293353086e+03
4.6459257033403344e+02 6.2345515977971195e+02 1.9560714644507409e+03
4.7034237350540536e+02 6.2138638162380869e+02 1.9492396473614529e+03
4.7214636055900343e+02 6.2056123740494309e+02 1.9465368439222680e+03
5.0277160612209076e+02 6.0725551990433223e+02 1.9030862421807765e+03
5.1772614837957451e+02 6.2231071570441361e+02 1.9502608965122124e+03
5.1888912867644171e+02 5.9970768551905769e+02 1.8784544433472358e+03
-4.8625342396379574e+02 7.4394167167734554e+02 2.3917138153246924e+03
-4.1765842507606226e+02 7.5271340520269189e+02 2.4149247291016391e+03
-3.8390523809913128e+02 7.5759014448248547e+02 2.4279181562395843e+03
-3.2322831053445293e+02 7.5970094514820164e+02 2.4298128278412023e+03
-2.9168392292908436e+02 7.6385287263291093e+02 2.4411014674561420e+03
-2.9190425304793348e+02 8.5554604985815467e+02 2.7270098961991698e+03
-2.3366386832136243e+02 8.2286531111725424e+02 2.6064829438610341e+03
3.2537161262993102e+01 8.1840272691740643e+02 2.5896320923032358e+03
2.7597568653872133e+02 6.8712845883809837e+02 2.1628893134820933e+03
2.9426420565263135e+02 6.8211154647449416e+02 2.1459681503678985e+03
2.9792307187131399e+02 6.8116751817892202e+02 2.1427901254284916e+03
3.3495224696747152e+02 6.7114923932306942e+02 2.1093084191305147e+03
3.4213791355220906e+02 6.6941968985279937e+02 2.1035852383339802e+03
3.5729458250608133e+02 6.6319761545948620e+02 2.0830217847124436e+03
3.6065143729209552e+02 6.6212434066055766e+02 2.0794524794511876e+03
3.7503570957795938e+02 6.5755114043231288e+02 2.0642284431258977e+03
3.7712748753802674e+02 6.5668436522187517e+02 2.0613653770759024e+03
3.8043829525328630e+02 6.5571903749367448e+02 2.0581292340266045e+03
4.0317039020842458e+02 6.4666716656199424e+02 2.0282477104433476e+03
4.0680680539851829e+02 6.4626562080071949e+02 2.0268871984811453e+03
4.1532534646586680e+02 6.4547181175259016e+02 2.0241474210501731e+03
4.4334854425586099e+02 6.3288410483626149e+02 1.9828923003974439e+03
4.6842406812827625e+02 6.2338019257901249e+02 1.9516105306027068e+03
4.7759955261417520e+02 6.1932198802179971e+02 1.9383900109265733e+03
4.8159196379566953e+02 6.1817947613036108e+02 1.9346296651334183e+03
5.2581545936255304e+02 5.8275587491026511e+02 1.8204215305565024e+03
-5.0676779963129496e+02 7.5046370544235492e+02 2.4079474361406228e+03
-4.7761828780689439e+02 7.4666996830721155e+02 2.3949726565256342e+03
