1.3321970970843762e+02 -4.4924205460551484e+01    1.9383626411363255e+03
 -3.1905001390846695e+02 -4.9164883220657323e+01    2.0861125650749459e+03
 -3.1207496423663343e+02 -4.9099587918407096e+01    2.0849426129739854e+03
 -2.9412317675724307e+02 -4.8921954489834199e+01    2.0830280431386514e+03
 -2.2322915005163043e+02 -4.8350189587198969e+01    2.0676699005244714e+03
 -2.1767831527431446e+02 -4.8284702072075099e+01    2.0661671671968465e+03
 -2.7878901829526848e+02 -4.7436643264352590e+01    2.0800914659769142e+03
 -2.7180817412082666e+02 -4.7362749338006594e+01    2.0785699332614940e+03
 -2.1483245112503744e+02 -4.6889142004229292e+01    2.0647381694300998e+03
 -1.7323525617567614e+02 -4.6318106734696585e+01    2.0504749081498549e+03
 -1.8782770052212797e+01 -4.3875245446145151e+01    1.9724838783183397e+03
 1.7679122808247829e+00 -4.3628422067827636e+01    1.9626089713203296e+03
 3.3468094004486552e+01 -4.3131713771576429e+01    1.9462290213360704e+03
 9.1755375039445411e+01 -4.2246725721484665e+01    1.9180720422218701e+03
 -1.8693535681180961e+02 -4.5144854754702095e+01    2.0541429500594772e+03
 -1.4042683798211377e+02 -4.4851642520971936e+01    2.0391834482062377e+03
 -8.3810468647523578e+01 -4.4558466120834176e+01    2.0181911614740629e+03
 -5.1615892820101230e+01 -4.3743885864438631e+01    1.9953088806224362e+03
 4.4772883308690119e+01 -4.1781054710966004e+01    1.9416759959331621e+03
 4.7277894853215834e+01 -4.1759675338026767e+01    1.9406464860876210e+03
 8.6848167824581239e+01 -4.1132205512740299e+01    1.9204126515090065e+03
 -2.9275449165979205e+02 -4.4910946734726451e+01    2.0829162354123978e+03
 -2.8299437683171840e+02 -4.4817741548829147e+01    2.0810551262389386e+03
 -2.4684451860347232e+02 -4.4560453059847283e+01    2.0735822394183024e+03
 -2.2464143977722571e+02 -4.4404332017143744e+01    2.0681958769293906e+03
 -1.4315138919715432e+02 -4.3570243101891414e+01    2.0401258344234579e+03
 -1.2817005299682634e+02 -4.3407710012904822e+01    2.0344681130973968e+03
 7.0833445063365218e+01 -4.0278876283339457e+01    1.9283016824711437e+03
 8.1929093426014674e+01 -4.0026228367656529e+01    1.9227329789198664e+03
 1.1596999939551112e+02 -4.0239848253365508e+01    1.9459627817264466e+03
 -3.1491464802077689e+02 -4.3783710540091676e+01    2.0857135473595736e+03
 -3.0792428536675288e+02 -4.3717197252186445e+01    2.0844300354906336e+03
 -3.0518239091662423e+02 -4.3692031276634403e+01    2.0842748021923439e+03
 -2.6765027332602773e+02 -4.3332270226219265e+01    2.0778085991412163e+03
 -2.2049604652397463e+02 -4.3044958116113435e+01    2.0672370872201300e+03
 1.2223772295049413e+02 -3.8960618689697164e+01    1.9447978847103886e+03
 1.2720095585290269e+02 -3.8918533497388545e+01    1.9431657652598637e+03
 -3.2891474325102951e+02 -4.2575131723660199e+01    2.0882302127436437e+03
 -3.2191508781679414e+02 -4.2507918837134170e+01    2.0869915934128612e+03
 -2.5791000737567475e+02 -4.1941495588226267e+01    2.0756657653304833e+03
 -2.3987159450894066e+02 -4.1874149285938337e+01    2.0716501280712978e+03
 -9.3179467107614244e+01 -4.0814737664880830e+01    2.0215002463149797e+03
 -8.5160641335992565e+01 -4.0722363169897093e+01    2.0188527559136862e+03
 -6.3697976487128777e+01 -4.0351039041099995e+01    2.0061573314357299e+03
 -1.7491355746129020e+01 -3.8795897932646369e+01    1.9713091239474850e+03
 3.0309687661276694e+00 -3.8643051241185745e+01    1.9618324367402224e+03
 4.8516057169516294e+01 -3.8055625638488969e+01    1.9399530894352868e+03
 1.7267897404266918e+02 -3.6638397246979849e+01    1.9130523534592721e+03
 -2.8302459003530026e+02 -4.0826043555397760e+01    2.0812332655067335e+03
 -2.4685624528011036e+02 -4.0581387070156318e+01    2.0736560880095371e+03
 -1.6782118386746211e+02 -3.9775500976181320e+01    2.0494306123733109e+03
 -1.3090940963337746e+02 -3.9527610837972112e+01    2.0358134769919382e+03
 -1.2547927229382087e+02 -3.9511029696606407e+01    2.0336460246080480e+03
 -5.8275866656083231e+01 -3.8851186098699699e+01    1.9999152677628190e+03
 -5.1610164454216267e+01 -3.8625447534689343e+01    1.9949417696716255e+03
 -2.0781690027878632e+00 -3.7406622706722551e+01    1.9639830941950552e+03
 3.0929051504794696e+01 -3.6997090853424787e+01    1.9470736398412637e+03
 3.4709771510782282e+01 -3.6950309987128342e+01    1.9455266405633326e+03
 6.8351583926045265e+01 -3.6667339194554835e+01    1.9295752917546440e+03
 1.2474732861177080e+02 -3.6491647939345235e+01    1.9445187711464832e+03
 1.3691385817440968e+02 -3.6252885206741063e+01    1.9371353287904701e+03
 1.6558944857455216e+02 -3.5626835432455927e+01    1.9178505661366523e+03
 -2.7326206879852862e+02 -3.9399391240730729e+01    2.0792160437161542e+03
 -2.5932135365354020e+02 -3.9296121988784421e+01    2.0761150404788700e+03
 -2.5382046059892838e+02 -3.9291205520818600e+01    2.0753569424405209e+03
 -2.3159542417807776e+02 -3.9179049668731544e+01    2.0700208829199546e+03
 -2.2051885299616563e+02 -3.9086480144755626e+01    2.0673898386437895e+03
 -1.8835562987444513e+02 -3.8615654650380826e+01    2.0548762744851588e+03
 -1.7465133696657722e+02 -3.8491756483631505e+01    2.0512424216008640e+03
 -1.4590924518030405e+02 -3.8382415499087784e+01    2.0414233264292393e+03
 -7.7081427072112533e+01 -3.7960021130074658e+01    2.0143126519289269e+03
 1.2723070167362037e+02 -3.5233458735019305e+01    1.9437523516132744e+03
 1.5497634695816475e+02 -3.4681390358362798e+01    1.9260471559220741e+03
 -3.1635901893452393e+02 -3.8443037678515964e+01    2.0862168107792986e+03
 -3.0798347127098299e+02 -3.8379488476144317e+01    2.0847810113073883e+03
 -2.2744653442915680e+02 -3.7828005398232932e+01    2.0690956996248551e+03
 7.2049978016703150e+01 -3.4152274223381205e+01    1.9275809812768371e+03
 -3.2055795385050112e+02 -3.7137919853192393e+01    2.0869803459381496e+03
 -3.0116108664677529e+02 -3.6976285023831537e+01    2.0846261414863311e+03
 -1.9247857015887840e+02 -3.6017051867316454e+01    2.0559756654116800e+03
 -1.6232381759292375e+02 -3.5804905739896597e+01    2.0473727444961007e+03
 -1.5137851016750361e+02 -3.5792760110587324e+01    2.0434615483813313e+03
 -1.1875031589379961e+02 -3.5636954150593390e+01    2.0315392148662527e+03
 -9.3194630790987972e+01 -3.5661259873489485e+01    2.0216719598665411e+03
 3.5956525855787831e+01 -3.3241301509550766e+01    1.9449281745087530e+03
 6.7112877947122001e+01 -3.2999038749132183e+01    1.9302507948050038e+03
 9.0513371482097853e+01 -3.2533526734842674e+01    1.9186951589879786e+03
 1.3329397659401340e+02 -3.2641349021118067e+01    1.9397488960505702e+03
 -3.1637045153300835e+02 -3.5767612015776301e+01    2.0862874319303146e+03
 -3.0662573123274512e+02 -3.5696094763273720e+01    2.0847741814354818e+03
 -2.9142191292686351e+02 -3.5566965461889438e+01    2.0830093457027842e+03
 -2.8165223708386310e+02 -3.5483096984680714e+01    2.0810827375146573e+03
 -2.4128631391979604e+02 -3.5247459587237834e+01    2.0721360534780115e+03
 -1.4592973284464384e+02 -3.4484029989066364e+01    2.0416153743277100e+03
 -8.9185374141819253e+01 -3.4328885186029453e+01    2.0203898644670455e+03
 -7.7086493139309809e+01 -3.4100747807105158e+01    2.0143386786132769e+03
 -2.7468207764659701e+02 -3.4089621508349964e+01    2.0796584678149170e+03
 -1.9805597099058295e+02 -3.3449878542259100e+01    2.0581650861563967e+03
 -1.7604496847799007e+02 -3.3269951787193357e+01    2.0518156350483378e+03
 -1.0526440332093983e+02 -3.3110332108595692e+01    2.0259505866081745e+03
 -9.7216896809882940e+01 -3.3112002380536772e+01    2.0230585741768739e+03
 -8.3837923817861508e+01 -3.2972932053638431e+01    2.0184824232792118e+03
 -1.7505272323625007e+01 -3.1290265109416939e+01    1.9710408928156867e+03
 -7.2100721398698786e+00 -3.1168131649933407e+01    1.9653950893542271e+03
 2.9646546085190547e+01 -3.0849098946901780e+01    1.9474562758289876e+03
 3.8463844206102429e+01 -3.0749844109426231e+01    1.9438135014647185e+03
 4.5989880974639284e+01 -3.0704311190787912e+01    1.9408507608085799e+03
 5.0973980684883067e+01 -3.0661431255845415e+01    1.9381327350285903e+03
 1.0936877961413064e+02 -2.9879894540033920e+01    1.9196232559996483e+03
 -3.1638930657124979e+02 -3.3094665158976852e+01    2.0863880179031644e+03
 7.8212886949620128e+01 -2.9131495942661960e+01    1.9245998729090602e+03
 9.0508101500344793e+01 -2.8875167019034006e+01    1.9187216143325134e+03
 9.5425708863922765e+01 -2.8791338716328486e+01    1.9168201899176124e+03
 1.3697169676748680e+02 -2.8888657143865181e+01    1.9381350344087002e+03
 -3.0804773039456768e+02 -3.1708439502230505e+01    2.0851499334028422e+03
 -1.9806979497871725e+02 -3.0825138270691046e+01    2.0582624714089980e+03
 6.8328015503267011e+01 -2.8095446028218046e+01    1.9294281972668921e+03
 8.5598776345693651e+01 -2.7746768413054596e+01    1.9210318880322441e+03
 1.2850770488867798e+02 -2.7832175695533167e+01    1.9440911238211177e+03
 1.4420829812398765e+02 -2.7531213933025231e+01    1.9334631352251158e+03
 -3.0257573099663296e+02 -3.0319687568166685e+01    2.0849413758652545e+03
 -1.4459709395810091e+02 -2.9284242068892695e+01    2.0414060090710486e+03
 -9.3206541693009925e+01 -2.9193972005374626e+01    2.0217903430053159e+03
 -7.9787211715299151e+01 -2.8993116420301433e+01    2.0160622887140062e+03
 1.0639853827311930e+01 -2.7418215773246267e+01    1.9575604054302089e+03
 -6.3688017957749899e+01 -2.7500063641503015e+01    2.0055180066610342e+03
 -2.1439265220387163e+01 -2.6482221255451350e+01    1.9746452515628403e+03
 3.4672368371470171e+01 -2.5859442378608716e+01    1.9451661832303682e+03
 1.2604600849190081e+02 -2.5385494913159981e+01    1.9452786844632637e+03
 -1.9531057008486209e+02 -2.6861736686745655e+01    2.0573884211479703e+03
 -1.4734297436787571e+02 -2.6695170684380557e+01    2.0425599592921262e+03
 -1.2688927697385918e+02 -2.6549662483256999e+01    2.0347092820267633e+03
 -8.9200528774923953e+01 -2.6575492328427799e+01    2.0205424001649847e+03
 9.2954514290094153e+01 -2.3953775879889204e+01    1.9176334530990271e+03
 1.0425717552425380e+02 -2.3777481247099459e+01    1.9179126082698060e+03
 -1.8020121356228867e+02 -2.5453208077562486e+01    2.0532796380289801e+03
 -9.5888620622934596e+01 -2.5342754252801512e+01    2.0227020657798637e+03
 -5.1584560052405315e+01 -2.4560911533887861e+01    1.9936642151701958e+03
 -4.7652924193397041e+01 -2.4527948591114622e+01    1.9922809922542313e+03
 5.0943360528949071e+01 -2.3302918600449935e+01    1.9378110668023057e+03
 6.9553589644596528e+01 -2.3191513826261314e+01    1.9287997250574360e+03
 -1.2150296402741805e+02 -2.3969391696990314e+01    2.0331057728358171e+03
 -1.4946022532796974e+01 -2.2522233467258275e+01    1.9686520105416766e+03
 5.5326362377044624e+00 -2.2486730840627004e+01    1.9599004996255896e+03
 3.9688735275606106e+01 -2.2125412336559716e+01    1.9429921296129112e+03
 -3.1504433907648428e+02 -2.3721340898023023e+01    2.0864236827372151e+03
 -1.9811070717860346e+02 -2.2946484877774544e+01    2.0585525906854978e+03
 -1.9393736803709490e+02 -2.2910849310370793e+01    2.0569866616620216e+03
 -1.4327271855289538e+02 -2.2779033189284768e+01    2.0413084088569242e+03
 -4.2410774119948492e+01 -2.1923513956556477e+01    1.9901142077734523e+03
 -8.3854237359924596e+01 -2.1356340163097634e+01    2.0186291661719852e+03
 6.7069348411596209e+01 -1.9524351328675934e+01    1.9298169854923062e+03
 7.4494955768313503e+01 -1.9406260429482792e+01    1.9263136828193396e+03
 1.1859117730448732e+02 -1.9251001050231260e+01    1.9479850480673661e+03
 8.5591622862055090e+01 -1.7931806035349826e+01    1.9210226867346003e+03
 1.2853417855491278e+02 -1.7952918022726863e+01    1.9447392518900767e+03
 -1.8162014640705044e+02 -1.8917759128428425e+01    2.0540279195160124e+03
 -1.7750416587200607e+02 -1.8891787460805592e+01    2.0529015326427725e+03
 -6.2321861837884249e+01 -1.8453827456633913e+01    2.0036909433461606e+03
 -4.6326318884190705e+01 -1.8109339684505905e+01    1.9910607466058279e+03
 2.8343500875262574e+01 -1.7287375080883944e+01    1.9475685632485229e+03
 3.7163845324810062e+01 -1.7205912205793432e+01    1.9439268604084314e+03
 4.9685425582514526e+01 -1.7156547945706567e+01    1.9384552381149686e+03
 7.0784415389309615e+01 -1.6991977182744112e+01    1.9280505317022887e+03
 7.8204406773201811e+01 -1.6849338930116332e+01    1.9246163383425667e+03
 -1.4331015343176287e+02 -1.7582251674712353e+01    2.0416907062306602e+03
 -9.1894356383387205e+01 -1.7564265548315841e+01    2.0216337817325336e+03
 -8.6546257854889632e+01 -1.7527860013914861e+01    2.0198740397277827e+03
 -1.3682904721610251e+01 -1.6313579157288320e+01    1.9679937181597722e+03
 -3.1369698955952003e+02 -1.7040173275983417e+01    2.0864341642289660e+03
 -1.3924201758903885e+02 -1.6249635230250920e+01    2.0405600616523991e+03
 -1.2423403729684152e+02 -1.6174251006840397e+01    2.0343315526886265e+03
 -1.0127792044072433e+02 -1.6325243310803742e+01    2.0248291291346279e+03
 -3.9000705161701831e+02 -1.6598711315760756e+01    2.0865664507802453e+03
 3.8411090305784462e+01 -1.3510490888586848e+01    1.9434521331610893e+03
 1.3216169356710043e+02 -1.2953942696946939e+01    1.9422040229628456e+03
 -1.4743287992236256e+02 -1.3692893892279864e+01    2.0434293537411188e+03
 -1.2020517701220203e+02 -1.3601323031718190e+01    2.0332452329277510e+03
 6.5829522505082210e+01 -1.2179454337393478e+01    1.9307354643900567e+03
 1.5640335118531684e+02 -1.0208563454688223e+01    1.9285942043682358e+03
 -3.1645555442954549e+02 -1.1717825141281281e+01    2.0866190932826898e+03
 -3.1229823722438687e+02 -1.1698351132915940e+01    2.0861138025543264e+03
 -2.9856197926994975e+02 -1.1616306042788279e+01    2.0851925015468701e+03
 1.3456470481444370e+02 -9.2040378196158130e+00    1.9403369792446661e+03
 1.4914779706056206e+02 -9.0575323710800415e+00    1.9324449335596621e+03
 -3.0812954090856863e+02 -1.0353953448221461e+01    2.0854891436674311e+03
 -1.0263059367748089e+02 -9.8214357255193736e+00    2.0254745237248026e+03
 -6.0946607965504711e+01 -9.4870187824309458e+00    2.0009597191798823e+03
 1.2975069680627783e+02 -8.0491272658993935e+00    1.9441793407128312e+03
 -3.2621982872029764e+02 -9.1116444298779715e+00    2.0881134698553324e+03
 -2.4135925317556141e+02 -6.0885139788405933e+00    2.0723977283881404e+03
 7.6980548352240646e+01 -4.6765802806645205e+00    1.9261808216691322e+03
 8.3152975293232430e+01 -4.5659800604649359e+00    1.9233015608197791e+03
 1.5402473973615483e+02 -4.3765821800952542e-01    1.9305620302595746e+03
 -9.8608854135857726e+01 -7.3108233489004315e-01    2.0240553085324898e+03
 6.4596478860233347e+01 1.3590403305222523e+00    1.9318902019023503e+03
 1.2360274708121642e+02 1.7984808543188797e+00    1.9474995661057826e+03
 1.3216684984504923e+02 1.8514078375684753e+00    1.9426436183439419e+03
 -3.1080108333379280e+02 1.6134438837787859e+00    2.0849929230441880e+03
 7.0806722198056946e+01 2.6111776042189834e+00    1.9295407872526114e+03
 -3.8214714870887593e+02 2.3466172657395759e+00    2.0882645960940517e+03
 -3.7135447455691883e+02 3.8407810923896708e+00    2.0889241561229846e+03
 1.2977425697698570e+02 5.5206882909460493e+00    1.9449559635303683e+03
 1.3338610091655210e+02 5.5620658836322150e+00    1.9420564437562027e+03
 1.4557065294091262e+02 5.6365746495204991e+00    1.9355681218240529e+03
 -9.8629565501127828e+01 7.0407306397651155e+00    2.0243255823481186e+03
 1.2239960840539774e+02 7.9673703218982039e+00    1.9487774352831573e+03
 1.2610931108060203e+02 1.0461264416885884e+01    1.9472383858926144e+03
 -2.7878475709500020e+02 1.3747436884576576e+01    2.0792848691343056e+03
 1.2613550830681299e+02 1.4160833725689695e+01    1.9478047021352331e+03
 1.5774407694732412e+02 1.5483852497003372e+01    1.9302866105270946e+03
 1.6376429823606784e+02 1.5494843796737024e+01    1.9270318372641111e+03
 1.3710702309297912e+02 1.6676630185900223e+01    1.9412140473919824e+03
 1.5896896358343017e+02 1.7941568248864908e+01    1.9299163495868438e+03
 -3.1426632439372037e+02 1.8841798760022531e+01    2.0806653890811481e+03
 -3.1556573971869705e+02 2.1494971006528456e+01    2.0802425540797353e+03
 5.7121579781402914e+01 2.3639472903003785e+01    1.9349147542230066e+03
 -3.7376173316261202e+02 2.5069618811292333e+01    2.0868262523572157e+03
 1.6140251472791979e+02 3.1436230511724922e+01    1.9291825045637120e+03
 -1.1223054742323534e+02 3.5699531045111065e+01    2.0314424346778164e+03
 1.4811893491727236e+02 4.2549995017851550e+01    1.9367845615287265e+03
